5.43824 12.346849 -35.412334 0 2
65.092331 12.281584 -33.271252 0 3
64.614326 12.191394 -31.132215 0 4
44.34166 8.3663597 -2.100734 0 21
43.272861 8.1646986 -1.0238655 0 22
43.01033 8.1151648 0.0012495406 0 23
43.180424 8.1472578 1.0241888 0 24
43.94558 8.2916269 2.0845282 0 25
59.603405 13.026984 -27.166424 0 5
58.925278 12.878773 -25.19211 0 6
58.193138 12.718755 -23.26623 0 7
57.440514 12.55426 -21.402 0 8
56.688259 12.389847 -19.604794 0 9
55.929138 12.223932 -17.869013 0 10
55.172119 12.058477 -16.194809 0 11
54.407101 11.891274 -14.576504 0 12
53.578915 11.710265 -12.998712 0 13
52.751213 11.529362 -11.477593 0 14
51.839954 11.330196 -9.9945965 0 15
50.746246 11.091154 -8.5370922 0 16
49.415722 10.800353 -7.1085553 0 17
48.422222 10.583214 -5.7928572 0 18
46.713047 10.209654 -4.4631381 0 19
46.154903 10.087666 -3.3028309 0 20
43.036617 9.4061289 -2.0508504 0 21
42.400028 9.2669954 -1.0090907 0 22
42.206375 9.2246704 0.0012333671 0 23
42.317341 9.2489243 1.0095974 0 24
42.851444 9.3656578 2.0445361 0 25
44.378716 9.69946 3.178334 0 26
46.01384 10.056834 4.3990459 0 27
55.525566 13.815868 -22.349026 0 7
54.731579 13.618308 -20.529833 0 8
54.065956 13.452688 -18.823675 0 9
53.474682 13.305568 -17.199745 0 10
52.893345 13.160919 -15.630345 0 11
52.265079 13.004595 -14.096807 0 12
51.577221 12.833442 -12.597249 0 13
50.777267 12.634397 -11.122415 0 14
49.671837 12.359344 -9.6410036 0 15
48.436794 12.052041 -8.2033796 0 16
47.619244 11.848618 -6.896204 0 17
47.149506 11.731737 -5.6785388 0 18
45.687107 11.367864 -4.3944769 0 19
43.500347 10.823754 -3.1338096 0 20
42.322281 10.530628 -2.0303752 0 21
40.412151 10.055349 -0.96824974 0 22
40.395367 10.051173 0.0011883853 0 23
40.774162 10.145425 0.97932363 0 24
42.199169 10.499995 2.0269573 0 25
43.149055 10.736345 3.1110535 0 26
44.770237 11.139728 4.3089433 0 27
46.17873 11.49019 5.5643759 0 28
46.856209 11.658759 6.7885127 0 29
47.51976 11.823864 8.0509396 0 30
48.219234 11.997908 9.3620005 0 31
52.318356 14.623716 -18.353786 0 9
51.666622 14.441547 -16.744606 0 10
51.113426 14.286922 -15.219261 0 11
50.531479 14.124259 -13.732898 0 12
49.872299 13.940009 -12.273495 0 13
48.972824 13.688593 -10.808762 0 14
48.010994 13.419748 -9.3895283 0 15
47.015999 13.141633 -8.0233202 0 16
46.730133 13.061729 -6.8189211 0 17
47.815025 13.364971 -5.8024964 0 18
45.730698 12.782372 -4.4321289 0 19
42.788773 11.960064 -3.1059952 0 20
40.454334 11.307556 -1.9555249 0 21
38.423065 10.739786 -0.92759514 0 22
37.998581 10.621138 0.001126378 0 23
39.458202 11.029122 0.9549256 0 24
41.505341 11.601326 2.0087955 0 25
42.544163 11.891691 3.0907736 0 26
44.595619 12.465102 4.3247862 0 27
46.343357 12.95362 5.6266904 0 28
47.163448 13.182847 6.8850026 0 29
50.566181 14.133959 8.6322412 0 30
51.918308 14.511897 10.15687 0 31
49.635193 15.421883 -14.904755 0 11
48.911179 15.196927 -13.405557 0 12
48.168182 14.966075 -11.95489 0 13
47.18634 14.661013 -10.503007 0 14
46.110416 14.326718 -9.0944967 0 15
45.909386 14.264256 -7.9010801 0 16
42.318108 13.14843 -3.097945 0 20
40.084045 12.454297 -1.9540981 0 21
35.329296 10.976974 -0.86015755 0 22
35.759865 11.110754 0.0010690282 0 23
36.663662 11.391568 0.89483845 0 24
41.410606 12.866466 2.0212493 0 25
42.12487 13.08839 3.0863297 0 26
44.130989 13.7117 4.3161116 0 27
47.094261 16.127729 -11.798368 0 13
46.394638 15.888138 -10.423984 0 14
44.04538 15.08362 -4.345603 0 19
42.010498 14.386762 -3.104373 0 20
41.223351 14.117198 -2.0285544 0 21
32.88089 11.260269 -0.80808151 0 22
33.90403 11.610651 0.0010230886 0 23
34.997387 11.985077 0.86220986 0 24
36.462151 12.486694 1.7964666 0 25
41.849018 14.331462 3.0949783 0 26
43.431969 14.873554 4.2877269 0 27
44.081161 16.523312 -4.3941088 0 19
41.771439 15.657539 -3.118628 0 20
31.14765 11.675336 -1.5485911 0 21
30.732693 11.519794 -0.76309794 0 22
31.870554 11.946308 0.00097167178 0 23
33.257069 12.466026 0.82780761 0 24
34.575916 12.960382 1.7211497 0 25
36.258842 13.591208 2.7092829 0 26
37.449612 14.037553 3.7353644 0 27
44.489128 18.148214 -28.494951 0 0
44.515057 18.158792 -27.019371 0 1
44.532696 18.165987 -25.575855 0 2
44.558914 18.176683 -24.171421 0 3
44.57143 18.181789 -22.791138 0 4
44.590775 18.18968 -21.443611 0 5
44.620022 18.201611 -20.127237 0 6
44.64312 18.211033 -18.832165 0 7
44.66787 18.221128 -17.559929 0 8
44.681828 18.226822 -16.303902 0 9
44.691219 18.230654 -15.065242 0 10
44.711105 18.238766 -13.847234 0 11
44.735027 18.248524 -12.645528 0 12
44.745792 18.252916 -11.453814 0 13
44.775337 18.264967 -10.278949 0 14
44.798637 18.274471 -9.1129065 0 15
44.811459 18.279701 -7.9540181 0 16
44.829956 18.287247 -6.8041835 0 17
43.990532 17.944826 -5.5526304 0 18
44.017693 17.955906 -4.4373217 0 19
41.788555 17.046585 -3.1551306 0 20
28.694208 11.705077 -1.4427184 0 21
28.747189 11.726688 -0.72185653 0 22
29.731697 12.128295 0.00091669639 0 23
31.093615 12.683855 0.78269494 0 24
32.686325 13.33356 1.6454583 0 25
34.181782 13.943594 2.5829201 0 26
35.606155 14.524632 3.591589 0 27
43.017399 19.004866 -27.890165 0 0
43.032734 19.011642 -26.439922 0 1
43.057095 19.022404 -25.031612 0 2
43.06918 19.027742 -23.649778 0 3
43.097317 19.040174 -22.307587 0 4
43.100246 19.04147 -20.98097 0 5
43.125149 19.052469 -19.69146 0 6
43.133667 19.056232 -18.418531 0 7
43.176842 19.075308 -17.181906 0 8
43.167152 19.071028 -15.944355 0 9
43.192039 19.082022 -14.738408 0 10
43.197624 19.084488 -13.542548 0 11
43.219543 19.094173 -12.366942 0 12
43.237556 19.102131 -11.203454 0 13
43.252262 19.108629 -10.051054 0 14
43.263927 19.113783 -8.9086313 0 15
43.277447 19.119755 -7.7759252 0 16
43.302723 19.13092 -6.6529737 0 17
42.79364 18.906012 -5.4677882 0 18
42.813099 18.914608 -4.3688107 0 19
41.835918 18.482895 -3.1974385 0 20
26.667772 11.781685 -1.3572723 0 21
26.893654 11.881478 -0.68359405 0 22
27.675219 12.22677 0.00086375349 0 23
28.782162 12.715812 0.73339444 0 24
30.257662 13.367681 1.5418748 0 25
31.979403 14.128336 2.44613 0 26
33.612282 14.849733 3.4320405 0 27
35.209106 15.555203 4.5009322 0 28
42.637283 20.318155 -28.010235 0 0
42.650455 20.32443 -26.552485 0 1
42.678894 20.337984 -25.140709 0 2
42.68782 20.342237 -23.751154 0 3
42.715797 20.35557 -22.403255 0 4
42.715752 20.355547 -21.069494 0 5
42.740105 20.367151 -19.774391 0 6
42.741241 20.367693 -18.492943 0 7
42.756905 20.375158 -17.240385 0 8
42.783745 20.387949 -16.012259 0 9
42.79755 20.394527 -14.797421 0 10
42.810284 20.400595 -13.599061 0 11
42.806068 20.398586 -12.411029 0 12
42.829571 20.409786 -11.244879 0 13
42.855534 20.422159 -10.090901 0 14
42.861763 20.425127 -8.9428377 0 15
42.875801 20.431818 -7.8058996 0 16
42.902252 20.444422 -6.6788392 0 17
42.369453 20.190523 -5.4853659 0 18
42.379539 20.19533 -4.3819056 0 19
42.309669 20.162035 -3.2765198 0 20
24.936651 11.883185 -1.2859931 0 21
25.187981 12.002953 -0.64872712 0 22
25.807135 12.298001 0.00081612897 0 23
26.664429 12.706532 0.6884411 0 24
27.792667 13.244177 1.4350407 0 25
29.314455 13.969362 2.2720156 0 26
31.150818 14.844453 3.2228801 0 27
33.108334 15.777277 4.2884965 0 28
42.924503 21.987576 -5.6365976 0 18
42.940529 21.995785 -4.5033245 0 19
43.0317 22.042488 -3.3800313 0 20
23.379148 11.975696 -1.2228924 0 21
23.635815 12.10717 -0.61744505 0 22
24.13098 12.360812 0.00077402138 0 23
24.786663 12.696679 0.64909995 0 24
25.635345 13.131407 1.3425554 0 25
26.739601 13.697048 2.1020517 0 26
28.331455 14.512458 2.9730527 0 27
30.778254 15.765801 4.0436239 0 28
21.967161 12.060127 -1.1666589 0 21
22.190699 12.182851 -0.5885849 0 22
22.600073 12.4076 0.00073603471 0 23
23.142216 12.70524 0.61533111 0 24
23.796087 13.064221 1.2653451 0 25
24.624193 13.518857 1.9654452 0 26
25.770962 14.14844 2.745837 0 27
28.053705 15.401684 3.7422037 0 28
20.671484 12.133191 -1.1158798 0 21
20.882847 12.257251 -0.56299382 0 22
21.230309 12.461194 0.00070278184 0 23
21.648146 12.706445 0.58506 0 24
22.182421 13.02004 1.1989144 0 25
22.852613 13.413411 1.8540035 0 26
23.724167 13.924973 2.5692768 0 27
25.418396 14.919405 3.4463639 0 28
19.472841 12.193879 -1.0696253 0 21
19.665405 12.314463 -0.53947759 0 22
19.981018 12.512098 0.00067303615 0 23
20.346497 12.740961 0.5595333 0 24
20.765408 13.003283 1.1420265 0 25
21.308664 13.34347 1.7590876 0 26
22.013758 13.784999 2.4258876 0 27
23.354752 14.624728 3.2221427 0 28
18.723518 12.486374 -1.5733188 0 20
18.351418 12.238227 -1.0268955 0 21
18.540615 12.3644 -0.51814222 0 22
18.822325 12.552266 0.00064587488 0 23
19.136309 12.761657 0.53610367 0 24
19.505301 13.00773 1.0928053 0 25
19.944675 13.300741 1.677307 0 26
20.541599 13.698819 2.3060308 0 27
21.714252 14.480841 3.0518892 0 28
17.565405 12.456542 -1.5054227 0 20
17.329468 12.289227 -0.98903781 0 21
17.486864 12.400845 -0.49843413 0 22
17.728077 12.571901 0.00062045141 0 23
18.008465 12.770739 0.51456267 0 24
18.346258 13.010286 1.0483557 0 25
18.721348 13.276281 1.6058083 0 26
19.230806 13.637565 2.2019088 0 27
16.511669 12.436233 -1.445106 0 20
16.357094 12.31981 -0.95332778 0 21
16.517584 12.440688 -0.48078489 0 22
16.722504 12.595029 0.00059766229 0 23
16.96629 12.778644 0.49505898 0 24
17.251598 12.993532 1.0066973 0 25
17.589081 13.247716 1.5406649 0 26
18.019361 13.571794 2.1069279 0 27
15.535952 12.415558 -1.3903224 0 20
15.453023 12.349285 -0.92091268 0 21
15.595089 12.462817 -0.46415287 0 22
15.780149 12.610707 0.00057667954 0 23
16.005262 12.790608 0.47753125 0 24
16.242624 12.980295 0.96915817 0 25
16.538532 13.216771 1.4812587 0 26
16.902161 13.507363 2.0207911 0 27
14.663204 12.423839 -1.3435736 0 20
14.597646 12.368294 -0.89072323 0 21
14.740153 12.489037 -0.44919005 0 22
14.90142 12.625675 0.00055757858 0 23
15.084535 12.780825 0.46081418 0 24
15.302799 12.965755 0.93489814 0 25
15.557281 13.181373 1.4266669 0 26
15.884649 13.458745 1.944517 0 27
13.841128 12.426686 -1.3003893 0 20
13.809919 12.398666 -0.86401325 0 21
13.925597 12.502523 -0.43512225 0 22
14.064339 12.627086 0.00053959392 0 23
14.226575 12.772743 0.44561887 0 24
14.427409 12.953054 0.90375572 0 25
14.6346 13.139071 1.3760653 0 26
14.924708 13.399533 1.8733084 0 27
13.057197 12.417526 -1.2596999 0 20
13.038736 12.399971 -0.83768362 0 21
13.140837 12.49707 -0.42163411 0 22
13.287955 12.63698 0.00052350538 0 23
13.419157 12.761755 0.43162215 0 24
13.600899 12.934593 0.87487417 0 25
13.787873 13.112409 1.3312842 0 26
14.018289 13.331535 1.806815 0 27
12.334248 12.423018 -1.2238445 0 20
12.332598 12.421356 -0.81488341 0 21
12.421146 12.510542 -0.40989324 0 22
12.540864 12.631122 0.00050814409 0 23
12.677894 12.769137 0.41939378 0 24
12.805578 12.897741 0.84717584 0 25
12.968114 13.061447 1.2877948 0 26
13.190562 13.285496 1.7485515 0 27
11.646977 12.424167 -1.1905392 0 20
11.652937 12.430524 -0.79321927 0 21
11.735721 12.518831 -0.39896592 0 22
11.840877 12.631004 0.00049426535 0 23
11.955545 12.753325 0.40743768 0 24
12.090791 12.897594 0.8240357 0 25
12.218023 13.033318 1.2499359 0 26
12.405595 13.233405 1.6941411 0 27
11.001413 12.431823 -1.1605414 0 20
10.993985 12.423429 -0.77231532 0 21
11.08662 12.528109 -0.38896173 0 22
11.178056 12.631433 0.00048153099 0 23
11.278626 12.745079 0.39667031 0 24
11.387558 12.868175 0.80094665 0 25
11.510177 13.006736 1.2152075 0 26
11.686778 13.2063 1.6470565 0 27
10.366128 12.414007 -1.1306415 0 20
10.383862 12.435246 -0.75421405 0 21
10.456895 12.522706 -0.37932077 0 22
10.533775 12.614775 0.0004691786 0 23
10.638006 12.739597 0.38683867 0 24
10.724641 12.843347 0.77992332 0 25
10.834018 12.974332 1.1826444 0 26
10.979234 13.148234 1.5998596 0 27
9.7830782 12.423497 -1.1054798 0 20
9.7924585 12.435409 -0.73687595 0 21
9.8503323 12.508903 -0.37018746 0 22
9.9343166 12.615554 0.00045841534 0 23
10.023834 12.729231 0.37763345 0 24
10.091265 12.814861 0.76029426 0 25
10.167904 12.912185 1.1499077 0 26
9.2188025 12.424274 -1.0815622 0 20
9.2264433 12.434571 -0.72083956 0 21
9.2949104 12.526846 -0.3626751 0 22
9.3459597 12.595645 0.00044776144 0 23
9.4195147 12.694777 0.36844003 0 24
9.4998264 12.803014 0.74311066 0 25
9.5641699 12.88973 1.1230021 0 26
8.6749477 12.420664 -1.0591396 0 20
8.6869202 12.437805 -0.70628428 0 21
8.7393827 12.51292 -0.35486457 0 22
8.8093853 12.613149 0.0004392156 0 23
8.8548498 12.678245 0.36043659 0 24
8.9163685 12.766326 0.72583038 0 25
8.984127 12.863342 1.0977881 0 26
8.1525669 12.416896 -1.0384401 0 20
8.1714306 12.445626 -0.69312656 0 21
8.2120085 12.507429 -0.34788206 0 22
8.2676716 12.592209 0.00043004722 0 23
8.3148556 12.664072 0.35310438 0 24
8.3670397 12.743551 0.71059108 0 25
8.4320898 12.842628 1.0749261 0 26
7.6490231 12.411998 -1.0192528 0 20
7.6646638 12.437378 -0.68013698 0 21
7.7032666 12.500018 -0.34138653 0 22
7.7451262 12.567944 0.00042145405 0 23
7.8068156 12.668047 0.3468256 0 24
7.8422189 12.725495 0.69674796 0 25
7.8926959 12.807403 1.052586 0 26
7.1728845 12.423776 -1.002903 0 20
7.1722522 12.42268 -0.66780245 0 21
7.212194 12.491861 -0.33537295 0 22
7.2573962 12.570153 0.00041437329 0 23
7.3041024 12.651051 0.34048128 0 24
7.3445373 12.721086 0.68468428 0 25
7.3795953 12.781808 1.0326518 0 26
6.7031813 12.41995 -0.98665905 0 20
6.7101564 12.432874 -0.65772772 0 21
6.7372618 12.483095 -0.32981098 0 22
6.780695 12.56357 0.00040757371 0 23
6.8176351 12.632015 0.33456555 0 24
6.8527293 12.69704 0.67252827 0 25
6.8889999 12.764243 1.0148424 0 26
6.2510376 12.422116 -0.97217965 0 20
6.2542081 12.428416 -0.64773011 0 21
6.2825508 12.48474 -0.32495707 0 22
6.3145366 12.548302 0.00040103449 0 23
6.3381557 12.595238 0.32863864 0 24
6.3752813 12.669014 0.66108084 0 25
6.4165611 12.751046 0.99874133 0 26
5.8090644 12.418767 -0.95847589 0 20
5.8163457 12.434333 -0.63907605 0 21
5.8368297 12.478125 -0.32029307 0 22
5.8683882 12.54559 0.00039540269 0 23
5.8946652 12.601767 0.32426155 0 24
5.9190474 12.653891 0.65115982 0 25
5.9496422 12.719297 0.98247635 0 26
5.3827591 12.424116 -0.94657665 0 20
5.3832092 12.425156 -0.63040477 0 21
5.4027896 12.47035 -0.31598353 0 22
5.4327865 12.539586 0.00039013894 0 23
5.4568925 12.595226 0.31993192 0 24
5.4733601 12.633236 0.64174974 0 25
5.5058041 12.70812 0.96900916 0 26
4.9600849 12.413109 -0.9345082 0 20
4.9566903 12.404614 -0.62188935 0 21
4.9763112 12.453717 -0.31181505 0 22
5.0072589 12.531167 0.00038524755 0 23
5.022078 12.568254 0.315456 0 24
5.0335875 12.597056 0.63231343 0 25
5.0727959 12.69518 0.95652795 0 26
4.551693 12.413211 -0.92430133 0 20
4.5532126 12.417355 -0.61572367 0 21
4.5700922 12.463388 -0.30864632 0 22
4.5873318 12.510404 0.00038040531 0 23
4.6060653 12.561493 0.31184012 0 24
4.6203465 12.60044 0.62557006 0 25
4.6589637 12.705756 0.94686103 0 26
4.1547866 12.422239 -0.9157182 0 20
4.1550179 12.422931 -0.6098364 0 21
4.1643581 12.450857 -0.30525076 0 22
4.1842947 12.510465 0.00037660077 0 23
4.2039647 12.569275 0.30891111 0 24
4.206008 12.575384 0.61807907 0 25
3.7602072 12.415728 -0.90691 0 20
3.7547109 12.397579 -0.60305411 0 21
3.7661309 12.435287 -0.30209488 0 22
3.7856784 12.49983 0.00037285671 0 23
3.796392 12.535205 0.30527046 0 24
3.8027055 12.556051 0.61151332 0 25
3.3727314 12.40897 -0.89897615 0 20
3.3695128 12.397127 -0.59808213 0 21
3.3817041 12.441982 -0.29977646 0 22
3.3957973 12.493833 0.00036961871 0 23
3.4011483 12.513521 0.30224094 0 24
3.4093449 12.543678 0.60589612 0 25
2.9899633 12.395267 -0.8914001 0 20
2.9885244 12.389302 -0.59332275 0 21
2.9988837 12.432248 -0.29734594 0 22
3.0091712 12.474895 0.00036635282 0 23
3.0139425 12.494676 0.2995733 0 24
3.0220683 12.528362 0.60071975 0 25
2.6162536 12.395847 -0.8856777 0 20
2.6120956 12.376145 -0.58886027 0 21
2.6209283 12.417995 -0.2950846 0 22
2.6287808 12.4552 0.00036340932 0 23
2.6364622 12.491595 0.29756287 0 24
2.6401935 12.509274 0.59592611 0 25
2.2487843 12.406211 -0.88144422 0 20
2.2449553 12.385087 -0.58597904 0 21
2.2526183 12.427362 -0.29365012 0 22
2.2569349 12.451177 0.00036125336 0 23
2.2587082 12.460959 0.29516748 0 24
2.2657886 12.50002 0.59214383 0 25
1.8824961 12.403197 -0.87703067 0 20
1.8790952 12.38079 -0.58298427 0 21
1.8824297 12.40276 -0.2916722 0 22
1.8888444 12.445024 0.00035935416 0 23
1.8899989 12.452631 0.29356453 0 24
1.8961478 12.493144 0.58899784 0 25
1.5213516 12.414826 -0.8744058 0 20
1.5159594 12.370824 -0.58022755 0 21
1.5193141 12.3982 -0.29042003 0 22
1.5239922 12.436376 0.00035769428 0 23
1.524911 12.443873 0.29220611 0 24
1.5285791 12.473806 0.58577681 0 25
1.1600301 12.40461 -0.87098283 0 20
1.1566851 12.36884 -0.57833946 0 21
1.1591496 12.395195 -0.28945124 0 22
1.1611063 12.416119 0.0003560067 0 23
1.1627978 12.434206 0.29107565 0 24
1.1675313 12.484822 0.58448005 0 25
0.8024013 12.412547 -0.86956531 0 20
0.79928601 12.364356 -0.57681978 0 21
0.80066562 12.385698 -0.28857407 0 22
0.8021943 12.409346 0.00035500625 0 23
0.80202848 12.40678 0.28977552 0 24
0.44555661 12.4181 -0.86870092 0 20
0.442828 12.342052 -0.57494962 0 21
0.44418287 12.379813 -0.28802139 0 22
0.44443625 12.386875 0.00035385284 0 23
0.44493768 12.40085 0.28921974 0 24
0.089210428 12.435191 -0.86935943 0 20
0.088588811 12.348543 -0.57489693 0 21
0.08870665 12.364968 -0.28749841 0 22
0.088822499 12.381117 0.00035347001 0 23
0.088786982 12.376165 0.2884658 0 24
-0.26772743 12.441019 -0.86994588 0 20
-0.266009 12.361167 -0.57560307 0 21
-0.26572433 12.347939 -0.28716153 0 22
-0.2657994 12.351425 0.00035269491 0 23
-0.26582673 12.352696 0.28797805 0 24
-0.6205442 12.349394 -0.57564712 0 21
-0.6201098 12.340749 -0.28728995 0 22
-0.62077731 12.354033 0.00035313269 0 23
-0.62071645 12.352821 0.28827757 0 24
-0.97564089 12.34033 -0.57629251 0 21
-0.9747566 12.329145 -0.28755262 0 22
-0.97566181 12.340594 0.00035340342 0 23
-0.97658569 12.352281 0.28880009 0 24
-1.3322997 12.335604 -0.57761955 0 21
-1.3299593 12.313934 -0.2879695 0 22
-1.3316115 12.329232 0.00035402665 0 23
-1.3312124 12.325538 0.28894907 0 24
-1.6879922 12.309643 -0.57843405 0 21
-1.6891838 12.318333 -0.28908697 0 22
-1.6880612 12.310146 0.00035472363 0 23
-1.691378 12.334333 0.29017371 0 24
-2.0487916 12.306459 -0.58080822 0 21
-2.0496223 12.31145 -0.29018638 0 22
-2.0488694 12.306927 0.00035617853 0 23
-2.4153869 12.316103 -0.58429426 0 21
-2.4164233 12.321387 -0.29193497 0 22
-2.4140072 12.309069 0.00035809807 0 23
-2.7862139 12.323647 -0.58820337 0 21
-2.7800047 12.296183 -0.29310739 0 22
-2.7820704 12.305319 0.00036016342 0 23
-3.1835127 12.413828 -0.29796684 0 22
