# .PCD v0.7 - Point Cloud Data file format
VERSION 0.7
FIELDS x y z intensity ring
SIZE 4 4 4 4 2
TYPE F F F F U
COUNT 1 1 1 1 1
WIDTH 508
HEIGHT 1
VIEWPOINT 0 0 0 1 0 0 0
POINTS 508
DATA ascii
65.380829 12.336017 -35.381264 0 2
65.075691 12.278444 -33.262749 0 3
64.590034 12.18681 -31.12051 0 4
44.309143 8.3602238 -2.0991936 0 21
43.254009 8.1611414 -1.0234195 0 22
43.001156 8.1134329 0.001249274 0 23
43.159069 8.1432285 1.0236822 0 24
43.96973 8.2961836 2.0856738 0 25
59.566154 13.018843 -27.149446 0 5
58.90654 12.874677 -25.184099 0 6
58.161903 12.711928 -23.253742 0 7
57.406097 12.546739 -21.389177 0 8
56.665257 12.384819 -19.596838 0 9
55.90797 12.219306 -17.862249 0 10
55.161369 12.056129 -16.191654 0 11
54.387573 11.887007 -14.571272 0 12
53.560322 11.706202 -12.994202 0 13
52.731979 11.525159 -11.473409 0 14
51.818424 11.325491 -9.9904461 0 15
50.724751 11.086456 -8.5334759 0 16
49.399784 10.79687 -7.1062632 0 17
48.400856 10.578543 -5.7903004 0 18
46.70927 10.208829 -4.4627776 0 19
46.132961 10.08287 -3.3012609 0 20
43.015541 9.4015236 -2.0498462 0 21
42.386017 9.2639341 -1.0087572 0 22
42.20483 9.2243328 0.001233322 0 23
42.325886 9.2507915 1.0098013 0 24
42.857265 9.36693 2.0448139 0 25
44.431759 9.7110529 3.1821327 0 26
46.016228 10.057356 4.3992743 0 27
55.501961 13.809995 -22.339525 0 7
54.704071 13.611465 -20.519514 0 8
54.053047 13.449476 -18.819181 0 9
53.45657 13.301061 -17.19392 0 10
52.868122 13.154644 -15.622892 0 11
52.250904 13.001067 -14.092984 0 12
51.562508 12.82978 -12.593656 0 13
50.76144 12.630459 -11.118948 0 14
49.632267 12.349498 -9.6333227 0 15
48.425694 12.049279 -8.2014999 0 16
47.600998 11.844078 -6.8935618 0 17
47.115005 11.723153 -5.6743836 0 18
45.684719 11.36727 -4.3942471 0 19
43.469219 10.816009 -3.131567 0 20
42.31662 10.52922 -2.0301037 0 21
40.421249 10.057613 -0.96846771 0 22
40.381195 10.047647 0.0011879683 0 23
40.808834 10.154052 0.98015642 0 24
42.200886 10.500422 2.0270398 0 25
43.176605 10.743201 3.1130397 0 26
44.780682 11.142326 4.3099489 0 27
46.212181 11.498513 5.5684066 0 28
46.856045 11.658719 6.7884893 0 29
47.528439 11.826024 8.0524101 0 30
48.234318 12.00166 9.3649292 0 31
52.289776 14.615727 -18.34376 0 9
51.649624 14.436796 -16.739098 0 10
51.100475 14.283301 -15.215405 0 11
50.518547 14.120644 -13.729383 0 12
49.847973 13.933209 -12.267508 0 13
48.948959 13.681923 -10.803495 0 14
47.994244 13.415067 -9.3862524 0 15
47.000065 13.137179 -8.0206013 0 16
46.762691 13.07083 -6.8236723 0 17
47.806881 13.362696 -5.8015084 0 18
45.712875 12.777391 -4.4304018 0 19
42.760609 11.952192 -3.1039507 0 20
40.463547 11.310131 -1.9559703 0 21
38.405243 10.734805 -0.92716491 0 22
38.008377 10.623876 0.0011266683 0 23
39.585796 11.064787 0.95801353 0 24
41.742741 11.667683 2.0202854 0 25
42.557957 11.895548 3.0917759 0 26
44.609169 12.46889 4.3261008 0 27
46.350361 12.955578 5.6275406 0 28
47.171253 13.185028 6.8861418 0 29
50.580681 14.138011 8.634716 0 30
51.950043 14.520768 10.163078 0 31
49.610565 15.41423 -14.897359 0 11
48.906715 15.195541 -13.404333 0 12
48.129299 14.953994 -11.94524 0 13
47.174358 14.65729 -10.50034 0 14
46.09478 14.32186 -9.0914125 0 15
45.909096 14.264167 -7.9010305 0 16
42.297058 13.14189 -3.0964038 0 20
40.084484 12.454433 -1.9541196 0 21
35.321056 10.974414 -0.85995686 0 22
35.760975 11.111099 0.0010690613 0 23
36.665253 11.392062 0.89487725 0 24
41.409218 12.866035 2.0211816 0 25
42.140472 13.093239 3.0874729 0 26
44.202148 13.733809 4.323071 0 27
47.070602 16.119627 -11.792441 0 13
46.391411 15.887033 -10.423258 0 14
43.92664 15.042956 -4.3338876 0 19
42.004761 14.384796 -3.1039488 0 20
35.023884 11.994151 -1.7234858 0 21
32.88887 11.263002 -0.80827761 0 22
33.921936 11.616783 0.0010236289 0 23
35.007999 11.988711 0.86247128 0 24
36.483459 12.493993 1.7975166 0 25
41.863598 14.336455 3.0960567 0 26
43.501564 14.897387 4.2945971 0 27
43.962803 16.478947 -4.3823104 0 19
41.749855 15.64945 -3.1170166 0 20
31.082397 11.650876 -1.5453469 0 21
30.747694 11.525416 -0.76347041 0 22
31.887293 11.952582 0.00097218208 0 23
33.295727 12.480517 0.82876986 0 24
34.597786 12.968578 1.7222383 0 25
36.277393 13.598161 2.710669 0 26
37.488247 14.052034 3.739218 0 27
44.483757 18.146025 -28.49151 0 0
44.509792 18.156645 -27.016176 0 1
44.522278 18.161739 -25.569874 0 2
44.542419 18.169954 -24.162472 0 3
44.552055 18.173885 -22.781231 0 4
44.586308 18.187857 -21.441462 0 5
44.61134 18.198069 -20.123322 0 6
44.637978 18.208935 -18.829996 0 7
44.650673 18.214113 -17.553169 0 8
44.671986 18.222807 -16.30031 0 9
44.688282 18.229456 -15.064253 0 10
44.710861 18.238667 -13.847158 0 11
44.721874 18.243158 -12.64181 0 12
44.738998 18.250143 -11.452073 0 13
44.773945 18.2644 -10.27863 0 14
44.795639 18.273249 -9.1122971 0 15
44.804558 18.276888 -7.9527941 0 16
44.818764 18.282682 -6.8024845 0 17
43.990849 17.944956 -5.5526705 0 18
44.01321 17.954077 -4.4368696 0 19
41.784348 17.044868 -3.1548128 0 20
28.664867 11.693109 -1.4412432 0 21
28.755644 11.730138 -0.72206885 0 22
29.7409 12.132049 0.00091698009 0 23
31.122665 12.695704 0.78342623 0 24
32.717468 13.346265 1.6470263 0 25
34.205273 13.953176 2.5846951 0 26
35.607018 14.524982 3.5916755 0 27
43.009789 19.001505 -27.885231 0 0
43.020916 19.00642 -26.432661 0 1
43.048115 19.018438 -25.026394 0 2
43.072483 19.029202 -23.651592 0 3
43.094227 19.038809 -22.305986 0 4
43.099648 19.041204 -20.980679 0 5
43.115059 19.048012 -19.686852 0 6
43.145283 19.061365 -18.423492 0 7
43.148441 19.062761 -17.170603 0 8
43.165882 19.070465 -15.943886 0 9
43.186569 19.079605 -14.73654 0 10
43.204594 19.087568 -13.544734 0 11
43.213638 19.091564 -12.365252 0 12
43.23555 19.101244 -11.202934 0 13
43.235989 19.101439 -10.047273 0 14
43.262543 19.113171 -8.9083462 0 15
43.25528 19.109961 -7.7719421 0 16
43.29343 19.126816 -6.6515465 0 17
42.809879 18.913185 -5.4698634 0 18
42.816105 18.915937 -4.3691173 0 19
41.814846 18.473585 -3.1958282 0 20
26.66123 11.778795 -1.3569393 0 21
26.90646 11.887136 -0.68391955 0 22
27.691408 12.233922 0.00086425868 0 23
28.807838 12.727156 0.73404878 0 24
30.27647 13.37599 1.5428331 0 25
32.018257 14.145501 2.4491019 0 26
33.625786 14.8557 3.4334197 0 27
42.633049 20.316137 -28.007452 0 0
42.653416 20.325842 -26.554327 0 1
42.664043 20.330908 -25.131962 0 2
42.676189 20.336695 -23.744682 0 3
42.708149 20.351925 -22.399244 0 4
42.701466 20.34874 -21.062449 0 5
42.739212 20.366728 -19.773979 0 6
42.738312 20.366299 -18.491676 0 7
42.771938 20.382324 -17.246449 0 8
42.786804 20.389406 -16.013405 0 9
42.792358 20.392054 -14.795626 0 10
42.808514 20.399752 -13.598498 0 11
42.818935 20.404718 -12.414759 0 12
42.832668 20.411263 -11.245692 0 13
42.848354 20.418737 -10.089211 0 14
42.860233 20.424398 -8.9425182 0 15
42.87299 20.430477 -7.8053875 0 16
42.893444 20.440226 -6.6774683 0 17
42.363445 20.187662 -5.4845881 0 18
42.379879 20.195492 -4.3819408 0 19
42.271648 20.143917 -3.2735753 0 20
24.93524 11.882513 -1.2859204 0 21
25.210938 12.013892 -0.6493184 0 22
25.835506 12.311522 0.00081702619 0 23
26.663082 12.70589 0.68840629 0 24
27.810402 13.252628 1.4359565 0 25
29.339922 13.981498 2.2739892 0 26
31.178738 14.857758 3.2257686 0 27
33.146633 15.795529 4.293458 0 28
42.936073 21.993504 -5.6381173 0 18
42.937561 21.994267 -4.5030131 0 19
43.035873 22.044624 -3.3803589 0 20
23.379044 11.975642 -1.2228869 0 21
23.644171 12.11145 -0.61766332 0 22
24.140543 12.365712 0.00077432819 0 23
24.799263 12.703133 0.64942992 0 24
25.640793 13.134197 1.3428406 0 25
26.765175 13.710149 2.1040621 0 26
28.363491 14.528868 2.9764147 0 27
30.86729 15.811409 4.0553212 0 28
21.955616 12.053789 -1.1660458 0 21
22.205153 12.190786 -0.58896834 0 22
22.622545 12.419938 0.00073676655 0 23
23.144693 12.706601 0.61539698 0 24
23.795853 13.064092 1.2653326 0 25
24.6206 13.516884 1.9651583 0 26
25.791943 14.15996 2.7480726 0 27
28.181932 15.472081 3.7593086 0 28
20.66437 12.129014 -1.1154957 0 21
20.885506 12.258811 -0.56306547 0 22
21.240204 12.467003 0.00070310943 0 23
21.683212 12.727028 0.58600771 0 24
22.204952 13.033264 1.2001321 0 25
22.856495 13.415689 1.8543184 0 26
23.749832 13.940036 2.5720563 0 27
25.468401 14.948756 3.4531438 0 28
20.095137 12.583559 -1.6575471 0 20
19.467249 12.190376 -1.0693179 0 21
19.671143 12.318055 -0.53963494 0 22
19.984373 12.514199 0.00067314913 0 23
20.337944 12.735605 0.55929804 0 24
20.787245 13.016957 1.1432276 0 25
21.317772 13.349173 1.7598394 0 26
22.019638 13.788681 2.4265356 0 27
23.407774 14.65793 3.2294581 0 28
18.71447 12.480339 -1.5725585 0 20
18.351585 12.238339 -1.0269049 0 21
18.537764 12.362497 -0.51806253 0 22
18.810036 12.544071 0.00064545323 0 23
19.137854 12.762687 0.53614694 0 24
19.513788 13.013391 1.0932808 0 25
19.965981 13.31495 1.6790987 0 26
20.551498 13.70542 2.307142 0 27
21.766188 14.515475 3.0591886 0 28
17.538359 12.437363 -1.5031048 0 20
17.313694 12.27804 -0.98813748 0 21
17.494463 12.406234 -0.49865073 0 22
17.736866 12.578135 0.00062075903 0 23
18.024305 12.781972 0.5150153 0 24
18.333809 13.001457 1.0476441 0 25
18.732212 13.283985 1.6067401 0 26
19.231861 13.638312 2.2020295 0 27
16.48628 12.417111 -1.4428841 0 20
16.354334 12.317731 -0.95316684 0 21
16.514118 12.438078 -0.48068401 0 22
16.733515 12.603323 0.00059805583 0 23
16.986149 12.7936 0.49563843 0 24
17.248617 12.991285 1.0065233 0 25
17.584312 13.244125 1.5402472 0 26
18.015574 13.568941 2.1064849 0 27
15.52344 12.40556 -1.3892027 0 20
15.450466 12.347242 -0.92076033 0 21
15.588715 12.457724 -0.46396318 0 22
15.775648 12.607111 0.0005765151 0 23
16.007954 12.792758 0.47761151 0 24
16.253338 12.988857 0.96979743 0 25
16.536516 13.215158 1.481078 0 26
16.913324 13.516285 2.0221257 0 27
14.65093 12.41344 -1.3424489 0 20
14.59656 12.367373 -0.89065695 0 21
14.737913 12.487139 -0.4491218 0 22
14.90917 12.632241 0.00055786857 0 23
15.090104 12.785543 0.46098432 0 24
15.314283 12.975486 0.93559974 0 25
15.561521 13.184964 1.4270556 0 26
15.888017 13.461598 1.9449292 0 27
13.815238 12.403441 -1.2979569 0 20
13.795013 12.385283 -0.86308068 0 21
13.918962 12.496566 -0.43491492 0 22
14.072474 12.634391 0.00053990603 0 23
14.239621 12.784457 0.44602755 0 24
14.427611 12.953236 0.90376842 0 25
14.649288 13.152259 1.3774464 0 26
14.92096 13.396169 1.872838 0 27
13.05203 12.412613 -1.2592014 0 20
13.046967 12.407798 -0.83821237 0 21
13.160165 12.515451 -0.42225426 0 22
13.299684 12.648134 0.00052396744 0 23
13.439854 12.781438 0.43228784 0 24
13.601205 12.934884 0.87489384 0 25
13.783202 13.107965 1.330833 0 26
14.02864 13.34138 1.8081492 0 27
12.319677 12.408343 -1.2223988 0 20
12.316544 12.405187 -0.81382263 0 21
12.433429 12.522913 -0.41029859 0 22
12.551093 12.641424 0.00050855853 0 23
12.681224 12.772492 0.41950396 0 24
12.824128 12.916424 0.84840304 0 25
12.972581 13.065946 1.2882384 0 26
13.191403 13.286343 1.7486628 0 27
11.652923 12.430509 -1.191147 0 20
11.642136 12.419002 -0.79248399 0 21
11.730888 12.513677 -0.39880165 0 22
11.835981 12.625783 0.00049406104 0 23
11.950998 12.748474 0.40728274 0 24
12.08407 12.890426 0.82357764 0 25
12.230181 13.046286 1.2511796 0 26
12.404826 13.232586 1.6940364 0 27
10.985788 12.414165 -1.1588931 0 20
11.000856 12.431194 -0.77279806 0 21
11.074567 12.514488 -0.38853887 0 22
11.178626 12.632077 0.00048155559 0 23
11.27506 12.741049 0.39654487 0 24
11.38958 12.870459 0.80108881 0 25
11.510688 13.007314 1.2152615 0 26
11.68359 13.202697 1.6466072 0 27
10.365816 12.413634 -1.1306074 0 20
10.387484 12.439581 -0.75447702 0 21
10.459452 12.525767 -0.37941349 0 22
10.541958 12.624573 0.00046954304 0 23
10.627716 12.727274 0.38646451 0 24
10.720161 12.837981 0.77959752 0 25
10.831652 12.971498 1.182386 0 26
10.999379 13.17236 1.6027952 0 27
9.7874746 12.42908 -1.1059766 0 20
9.7986298 12.443245 -0.73734033 0 21
9.8516598 12.510588 -0.37023735 0 22
9.9434214 12.627115 0.00045883542 0 23
10.017777 12.721539 0.37740529 0 24
10.100548 12.82665 0.76099366 0 25
10.189476 12.939579 1.1523473 0 26
9.2156153 12.419979 -1.0811882 0 20
9.2346392 12.445619 -0.72147995 0 21
9.293273 12.524639 -0.3626112 0 22
9.3584223 12.612441 0.00044835854 0 23
9.4287977 12.707287 0.36880311 0 24
9.5017719 12.805634 0.74326277 0 25
9.5736494 12.902506 1.1241151 0 26
8.6696053 12.413014 -1.0584874 0 20
8.6835155 12.432931 -0.70600748 0 21
8.7373962 12.510077 -0.35478392 0 22
8.8061352 12.608496 0.00043905355 0 23
8.861393 12.687613 0.36070293 0 24
8.9241304 12.777439 0.72646224 0 25
8.9853039 12.865026 1.0979319 0 26
8.1557102 12.421683 -1.0388405 0 20
8.1685953 12.441308 -0.69288605 0 21
8.2124615 12.50812 -0.34790125 0 22
8.2566509 12.575423 0.00042947399 0 23
8.3256235 12.680473 0.3535617 0 24
8.3721037 12.751266 0.71102118 0 25
8.4429331 12.859143 1.0763084 0 26
7.6530976 12.41861 -1.0197957 0 20
7.661099 12.431593 -0.6798206 0 21
7.7004299 12.495416 -0.34126082 0 22
7.7659922 12.601803 0.00042258948 0 23
7.8006406 12.658027 0.34655127 0 24
7.8461475 12.73187 0.69709694 0 25
7.9014401 12.821592 1.0537521 0 26
7.1706595 12.419921 -1.0025918 0 20
7.179081 12.434507 -0.6684382 0 21
7.2205973 12.506416 -0.33576372 0 22
7.2558246 12.567431 0.00041428354 0 23
7.2983537 12.641093 0.34021333 0 24
7.3351173 12.70477 0.68380612 0 25
7.3792663 12.781238 1.0326058 0 26
6.7003751 12.41475 -0.98624605 0 20
6.7125969 12.437396 -0.65796691 0 21
6.7371011 12.482798 -0.32980311 0 22
6.7772632 12.557212 0.00040736745 0 23
6.8160119 12.629007 0.33448589 0 24
6.84796 12.688203 0.67206019 0 25
6.8837395 12.754496 1.0140675 0 26
6.2466016 12.413301 -0.97148973 0 20
6.2535067 12.427023 -0.64765745 0 21
6.2810988 12.481854 -0.32488194 0 22
6.3165579 12.55232 0.00040116286 0 23
6.3464603 12.611741 0.32906926 0 24
6.3728561 12.664195 0.66082942 0 25
6.4124432 12.742863 0.9981004 0 26
5.8087258 12.418042 -0.95841998 0 20
5.8115716 12.424127 -0.63855147 0 21
5.8339467 12.47196 -0.32013488 0 22
5.8632345 12.534573 0.00039505545 0 23
5.896512 12.605714 0.32436314 0 24
5.9174929 12.650567 0.65098882 0 25
5.95084 12.721858 0.98267418 0 26
5.3795209 12.416643 -0.94600725 0 20
5.3816681 12.421598 -0.63022429 0 21
5.4111381 12.489619 -0.31647182 0 22
5.4323015 12.538467 0.00039010416 0 23
5.4511409 12.581951 0.31959471 0 24
5.4712286 12.628316 0.64149982 0 25
5.5091562 12.715858 0.96959919 0 26
4.9579787 12.407838 -0.93411136 0 20
4.9587045 12.409654 -0.62214208 0 21
4.9807625 12.464857 -0.31209397 0 22
5.0037851 12.522473 0.00038498029 0 23
5.0246015 12.574568 0.31561449 0 24
5.0394635 12.611762 0.63305163 0 25
5.0747504 12.70007 0.95689648 0 26
4.5523419 12.41498 -0.92443305 0 20
4.5556808 12.424086 -0.61605746 0 21
4.5704684 12.464414 -0.30867171 0 22
4.5895619 12.516486 0.00038059027 0 23
4.6055503 12.560088 0.31180528 0 24
4.6178021 12.593501 0.6252256 0 25
4.6611705 12.711774 0.94730943 0 26
4.1491036 12.405248 -0.91446567 0 20
4.1494823 12.40638 -0.60902399 0 21
4.1675091 12.460278 -0.3054817 0 22
4.1867833 12.517905 0.00037682478 0 23
4.1959028 12.545171 0.3083187 0 24
4.2036819 12.56843 0.61773729 0 25
3.7576585 12.407311 -0.9062953 0 20
3.7596598 12.41392 -0.60384893 0 21
3.7675207 12.439876 -0.30220637 0 22
3.7855103 12.499275 0.00037284015 0 23
3.7937689 12.526544 0.30505955 0 24
3.8056307 12.56571 0.61198372 0 25
3.3690386 12.395383 -0.89799184 0 20
3.3656156 12.382789 -0.59739041 0 21
3.3791776 12.432686 -0.2995525 0 22
3.3944886 12.489018 0.00036947627 0 23
3.4046819 12.526522 0.30255494 0 24
3.4094498 12.544064 0.60591471 0 25
2.9941704 12.412708 -0.89265442 0 20
2.9907753 12.398634 -0.59376961 0 21
2.9982183 12.429489 -0.29727995 0 22
3.0062709 12.462873 0.00036599973 0 23
3.0155177 12.501206 0.29972988 0 24
3.0226314 12.530697 0.60083169 0 25
2.6179638 12.40395 -0.88625664 0 20
2.615478 12.392172 -0.5896228 0 21
2.6203694 12.415347 -0.29502168 0 22
2.6327782 12.47414 0.00036396191 0 23
2.6348288 12.483856 0.29737851 0 24
2.6412506 12.514282 0.5961647 0 25
2.2481239 12.402567 -0.88118535 0 20
2.2466402 12.394382 -0.58641881 0 21
2.2527976 12.428352 -0.29367352 0 22
2.255481 12.443155 0.00036102062 0 23
2.2594771 12.465201 0.29526794 0 24
2.265449 12.498148 0.59205514 0 25
1.8818216 12.398753 -0.87671643 0 20
1.8792098 12.381544 -0.58301979 0 21
1.8832502 12.408166 -0.29179931 0 22
1.8879913 12.439404 0.00035919188 0 23
1.8876885 12.437407 0.29320565 0 24
1.8935323 12.475911 0.58818537 0 25
1.516602 12.376069 -0.87167597 0 20
1.5168117 12.37778 -0.58055383 0 21
1.5191064 12.396505 -0.2903803 0 22
1.5216912 12.417599 0.00035715423 0 23
1.5226835 12.425695 0.29177925 0 24
1.5287627 12.475304 0.58584714 0 25
1.1604643 12.409253 -0.87130886 0 20
1.1560678 12.36224 -0.57803088 0 21
1.1585633 12.388924 -0.28930479 0 22
1.1607926 12.412764 0.00035591051 0 23
1.1635715 12.442479 0.2912693 0 24
1.1658976 12.467354 0.58366221 0 25
0.80162394 12.400522 -0.86872292 0 20
0.79915929 12.362396 -0.57672834 0 21
0.80068117 12.385939 -0.28857967 0 22
0.80206329 12.407319 0.00035494828 0 23
0.80155981 12.39953 0.28960618 0 24
0.44549891 12.416492 -0.86858839 0 20
0.44342184 12.358603 -0.57572067 0 21
0.4440999 12.377501 -0.28796759 0 22
0.44426656 12.382146 0.00035371774 0 23
0.44492495 12.400496 0.28921145 0 24
0.089233145 12.438357 -0.86958081 0 20
0.08855477 12.343798 -0.57467598 0 21
0.088708863 12.365276 -0.2875056 0 22
0.088774547 12.374433 0.00035327917 0 23
0.088811606 12.379598 0.28854582 0 24
-0.26791799 12.449874 -0.87056512 0 20
-0.2659522 12.358527 -0.57548016 0 21
-0.26612201 12.366417 -0.28759128 0 22
-0.26611635 12.366154 0.00035311547 0 23
-0.26596642 12.359187 0.28812936 0 24
-0.62881297 12.513949 -0.87594682 0 20
-0.61974758 12.333541 -0.57490814 0 21
-0.62027508 12.344038 -0.28736651 0 22
-0.62051708 12.348853 0.00035298464 0 23
-0.62115276 12.361505 0.28848019 0 24
-0.97430497 12.323433 -0.57550341 0 21
-0.97499144 12.332116 -0.28762192 0 22
-0.97552115 12.338816 0.00035335249 0 23
-0.97502333 12.332519 0.28833804 0 24
-1.3310107 12.323669 -0.5770607 0 21
-1.3303322 12.317387 -0.28805023 0 22
-1.3313018 12.326365 0.00035394434 0 23
-1.3307774 12.321509 0.28885463 0 24
-1.6878235 12.308413 -0.57837629 0 21
-1.6902899 12.326398 -0.28927627 0 22
-1.6858437 12.293975 0.00035425765 0 23
-1.6918292 12.337624 0.29025114 0 24
-2.0494432 12.310374 -0.580993 0 21
-2.0501938 12.314882 -0.29026729 0 22
-2.0448785 12.282955 0.00035548475 0 23
-2.4148836 12.313537 -0.58417249 0 21
-2.4155552 12.316962 -0.29183012 0 22
-2.4096651 12.286927 0.00035745394 0 23
-2.7845924 12.316474 -0.58786106 0 21
-2.7817004 12.303682 -0.29328614 0 22
-2.7768712 12.282323 0.00035949037 0 23
-3.185266 12.420665 -0.29813096 0 22
