# .PCD v0.7 - Point Cloud Data file format
VERSION 0.7
FIELDS x y z intensity ring
SIZE 4 4 4 4 2
TYPE F F F F U
COUNT 1 1 1 1 1
WIDTH 506
HEIGHT 1
VIEWPOINT 0 0 0 1 0 0 0
POINTS 506
DATA ascii
65.356163 12.331364 -35.36792 0 2
65.041412 12.271976 -33.245228 0 3
64.568909 12.182824 -31.110331 0 4
44.286221 8.3558989 -2.0981073 0 21
43.257454 8.1617908 -1.0235009 0 22
42.994904 8.1122532 0.0012490924 0 23
43.163879 8.1441355 1.0237962 0 24
44.001808 8.3022356 2.0871954 0 25
59.563896 13.01835 -27.148417 0 5
58.870853 12.866877 -25.168842 0 6
58.133759 12.705776 -23.242489 0 7
57.388832 12.542965 -21.382744 0 8
56.634796 12.378161 -19.586304 0 9
55.899654 12.217489 -17.859594 0 10
55.146709 12.052924 -16.187351 0 11
54.366779 11.882462 -14.565701 0 12
53.549664 11.703872 -12.991615 0 13
52.714306 11.521296 -11.469563 0 14
51.814728 11.324682 -9.9897327 0 15
50.719849 11.085384 -8.5326509 0 16
49.364258 10.789105 -7.1011529 0 17
48.384659 10.575003 -5.788363 0 18
46.703533 10.207574 -4.4622293 0 19
46.121719 10.080413 -3.3004565 0 20
42.997833 9.3976536 -2.0490024 0 21
42.389496 9.2646942 -1.0088401 0 22
42.209106 9.2252674 0.001233447 0 23
42.334839 9.2527485 1.0100149 0 24
42.870411 9.3698034 2.0454412 0 25
44.495548 9.7249947 3.1867013 0 26
46.022938 10.058823 4.3999157 0 27
55.497688 13.808932 -22.337805 0 7
54.682041 13.605982 -20.51125 0 8
54.033749 13.444674 -18.812462 0 9
53.451378 13.299768 -17.192249 0 10
52.865341 13.153952 -15.622069 0 11
52.239346 12.998191 -14.089866 0 12
51.558319 12.828738 -12.592632 0 13
50.739548 12.625011 -11.114153 0 14
49.621468 12.34681 -9.6312265 0 15
48.403137 12.043666 -8.1976795 0 16
47.574165 11.837401 -6.8896761 0 17
47.124367 11.725482 -5.6755109 0 18
45.672012 11.364108 -4.3930249 0 19
43.456577 10.812863 -3.1306565 0 20
42.299072 10.524853 -2.0292618 0 21
40.397091 10.051602 -0.96788895 0 22
40.387657 10.049254 0.0011881585 0 23
40.832939 10.160049 0.98073536 0 24
42.221981 10.505671 2.028053 0 25
43.200539 10.749156 3.1147654 0 26
44.79425 11.145703 4.311255 0 27
46.21917 11.500251 5.5692482 0 28
46.877178 11.663978 6.7915511 0 29
47.528248 11.825975 8.0523777 0 30
48.262081 12.008569 9.3703194 0 31
52.276447 14.612001 -18.339085 0 9
51.625778 14.430131 -16.731369 0 10
51.072586 14.275506 -15.207101 0 11
50.500507 14.115602 -13.724482 0 12
49.831158 13.928509 -12.263369 0 13
48.936203 13.678357 -10.800679 0 14
47.977077 13.410268 -9.3828955 0 15
46.992085 13.134949 -8.0192394 0 16
46.762577 13.070798 -6.8236551 0 17
47.804325 13.36198 -5.801198 0 18
45.707378 12.775855 -4.4298687 0 19
42.731728 11.944118 -3.1018541 0 20
40.449894 11.306314 -1.9553102 0 21
38.375759 10.726564 -0.92645317 0 22
38.00861 10.623941 0.0011266753 0 23
39.861488 11.141846 0.9646855 0 24
41.758961 11.672216 2.0210702 0 25
42.570671 11.899101 3.0926995 0 26
44.595463 12.465058 4.3247714 0 27
46.35281 12.956263 5.6278381 0 28
47.179577 13.187355 6.8873568 0 29
50.596874 14.142538 8.6374807 0 30
51.953449 14.52172 10.163745 0 31
49.612663 15.414882 -14.897989 0 11
48.894154 15.191638 -13.40089 0 12
48.110931 14.948288 -11.940682 0 13
47.146297 14.648571 -10.494094 0 14
46.075146 14.31576 -9.0875397 0 15
45.937679 14.273048 -7.9059501 0 16
42.285786 13.138388 -3.0955789 0 20
40.092926 12.457056 -1.9545311 0 21
35.327625 10.976456 -0.86011684 0 22
35.772091 11.114553 0.0010693937 0 23
36.704784 11.404345 0.89584208 0 24
41.405308 12.864819 2.0209906 0 25
42.165585 13.101041 3.0893128 0 26
44.31459 13.768747 4.3340683 0 27
47.065865 16.118004 -11.791254 0 13
46.386307 15.885285 -10.422112 0 14
43.859505 15.019966 -4.3272643 0 19
41.976334 14.375062 -3.1018484 0 20
34.6521 11.866832 -1.7051908 0 21
32.901756 11.267416 -0.80859435 0 22
33.946289 11.625123 0.0010243638 0 23
35.043129 12.000742 0.86333674 0 24
36.520153 12.506558 1.7993244 0 25
41.875755 14.340618 3.0969558 0 26
43.541824 14.911174 4.2985721 0 27
43.864456 16.442083 -4.3725071 0 19
41.718483 15.63769 -3.1146741 0 20
31.024118 11.629031 -1.5424494 0 21
30.751814 11.526961 -0.76357275 0 22
31.915623 11.963202 0.00097304577 0 23
33.313042 12.487008 0.82920086 0 24
34.620411 12.977059 1.7233646 0 25
36.297318 13.605629 2.7121577 0 26
37.530762 14.06797 3.7434585 0 27
44.454292 18.134005 -28.472639 0 0
44.487064 18.147373 -27.00238 0 1
44.514004 18.158363 -25.565121 0 2
44.527496 18.163866 -24.154377 0 3
44.565228 18.179258 -22.787966 0 4
44.58971 18.189245 -21.4431 0 5
44.607998 18.196705 -20.121813 0 6
44.622646 18.202681 -18.823528 0 7
44.639965 18.209745 -17.54896 0 8
44.668686 18.221462 -16.299107 0 9
44.685127 18.228168 -15.063189 0 10
44.714733 18.240244 -13.848357 0 11
44.730927 18.246851 -12.644368 0 12
44.736973 18.249317 -11.451555 0 13
44.761852 18.259466 -10.275853 0 14
44.793705 18.272459 -9.1119032 0 15
44.788754 18.270441 -7.9499884 0 16
44.827934 18.286423 -6.8038764 0 17
43.982849 17.941692 -5.5516605 0 18
44.018295 17.956152 -4.4373827 0 19
41.759411 17.034697 -3.15293 0 20
28.634819 11.680851 -1.4397324 0 21
28.766844 11.734707 -0.72235006 0 22
29.772953 12.145123 0.0009179684 0 23
31.137522 12.701765 0.78380018 0 24
32.735455 13.353601 1.6479316 0 25
34.234375 13.965048 2.586894 0 26
35.621029 14.530699 3.5930891 0 27
42.999966 18.997166 -27.878862 0 0
43.023632 19.007622 -26.43433 0 1
43.036945 19.013502 -25.019897 0 2
43.062347 19.024723 -23.646027 0 3
43.067261 19.026896 -22.292028 0 4
43.101471 19.042009 -20.981565 0 5
43.11763 19.049149 -19.688026 0 6
43.127369 19.053452 -18.415842 0 7
43.148151 19.062634 -17.170488 0 8
43.152023 19.064342 -15.938766 0 9
43.180157 19.076773 -14.734353 0 10
43.198555 19.084902 -13.542841 0 11
43.212894 19.091234 -12.36504 0 12
43.222744 19.095587 -11.199615 0 13
43.243866 19.104919 -10.049103 0 14
43.263805 19.113728 -8.9086065 0 15
43.270454 19.116667 -7.7746687 0 16
43.295727 19.127831 -6.6518989 0 17
42.795841 18.906984 -5.46807 0 18
42.813824 18.914928 -4.3688846 0 19
41.80315 18.468418 -3.1949341 0 20
26.638706 11.768845 -1.355793 0 21
26.927643 11.896495 -0.68445796 0 22
27.708138 12.241314 0.00086478086 0 23
28.827686 12.735924 0.73455447 0 24
30.295162 13.384248 1.5437857 0 25
32.045849 14.157692 2.4512126 0 26
33.663872 14.872526 3.4373083 0 27
42.63586 20.317476 -28.009298 0 0
42.631168 20.315241 -26.540478 0 1
42.66021 20.329079 -25.129702 0 2
42.677002 20.337082 -23.745134 0 3
42.691265 20.34388 -22.39039 0 4
42.712166 20.35384 -21.067726 0 5
42.72234 20.358688 -19.766174 0 6
42.742409 20.36825 -18.493446 0 7
42.754082 20.373814 -17.239246 0 8
42.761314 20.37726 -16.003864 0 9
42.782948 20.387569 -14.792372 0 10
42.799397 20.395407 -13.595602 0 11
42.821434 20.405909 -12.415483 0 12
42.836788 20.413225 -11.246774 0 13
42.837986 20.413797 -10.086769 0 14
42.859058 20.423838 -8.9422731 0 15
42.879837 20.433741 -7.8066344 0 16
42.886055 20.436703 -6.6763172 0 17
42.376591 20.193926 -5.48629 0 18
42.397167 20.20373 -4.3837285 0 19
42.24369 20.130594 -3.2714105 0 20
24.932777 11.881339 -1.2857933 0 21
25.213949 12.015327 -0.64939594 0 22
25.832396 12.310039 0.00081692782 0 23
26.693846 12.72055 0.68920058 0 24
27.828232 13.261125 1.436877 0 25
29.358355 13.990281 2.2754178 0 26
31.207466 14.871448 3.2287409 0 27
33.183834 15.813256 4.2982764 0 28
42.930828 21.990816 -5.6374283 0 18
42.935822 21.993374 -4.5028305 0 19
43.050678 22.052208 -3.3815219 0 20
23.379528 11.975891 -1.2229123 0 21
23.639603 12.109111 -0.61754405 0 22
24.134901 12.362822 0.00077414716 0 23
24.813532 12.710442 0.64980358 0 24
25.661917 13.145018 1.3439469 0 25
26.791603 13.723685 2.1061397 0 26
28.383001 14.538861 2.978462 0 27
30.949574 15.853558 4.0661316 0 28
21.956717 12.054394 -1.1661043 0 21
22.208677 12.192721 -0.5890618 0 22
22.637743 12.428282 0.00073726149 0 23
23.145699 12.707153 0.61542374 0 24
23.808823 13.071213 1.2660223 0 25
24.645748 13.530691 1.9671656 0 26
25.818829 14.174721 2.7509372 0 27
20.669096 12.131789 -1.1157509 0 21
20.890574 12.261786 -0.56320214 0 22
21.249582 12.472507 0.00070341985 0 23
21.679092 12.724609 0.58589637 0 24
22.213577 13.038327 1.2005984 0 25
22.858795 13.41704 1.8545051 0 26
23.764074 13.948396 2.5735989 0 27
25.530825 14.985395 3.4616077 0 28
20.023285 12.538566 -1.6516205 0 20
19.460972 12.186446 -1.0689732 0 21
19.661791 12.312199 -0.5393784 0 22
19.981386 12.512329 0.00067304855 0 23
20.341072 12.737564 0.55938411 0 24
20.795931 13.022396 1.1437052 0 25
21.324524 13.353401 1.7603968 0 26
22.052027 13.808963 2.4301047 0 27
23.456966 14.688735 3.2362449 0 28
18.674877 12.453936 -1.5692316 0 20
18.359688 12.243743 -1.0273584 0 21
18.539751 12.363823 -0.51811808 0 22
18.812365 12.545625 0.00064553309 0 23
19.133038 12.759476 0.53601205 0 24
19.516546 13.01523 1.0934353 0 25
19.975468 13.321277 1.6798966 0 26
20.56563 13.714845 2.3087285 0 27
17.523151 12.426578 -1.5018015 0 20
17.315804 12.279537 -0.98825794 0 21
17.499802 12.410019 -0.49880287 0 22
17.734623 12.576543 0.00062068045 0 23
18.019028 12.77823 0.5148645 0 24
18.360519 13.020399 1.0491706 0 25
18.742769 13.291472 1.6076458 0 26
19.249468 13.650799 2.2040455 0 27
16.472019 12.406368 -1.4416357 0 20
16.361341 12.323009 -0.95357531 0 21
16.516502 12.439873 -0.48075336 0 22
16.721563 12.594321 0.00059762871 0 23
16.983648 12.791718 0.49556547 0 24
17.26473 13.003423 1.0074636 0 25
17.587894 13.246821 1.5405608 0 26
18.046494 13.592229 2.1101003 0 27
15.514688 12.398564 -1.3884194 0 20
15.45645 12.352024 -0.92111695 0 21
15.594796 12.462584 -0.46414417 0 22
15.77744 12.608543 0.00057658058 0 23
16.003641 12.789311 0.47748283 0 24
16.263565 12.99703 0.97040772 0 25
16.538872 13.217042 1.4812891 0 26
16.9226 13.523698 2.0232346 0 27
14.643345 12.407013 -1.341754 0 20
14.602325 12.372258 -0.89100873 0 21
14.744552 12.492764 -0.44932407 0 22
14.905478 12.629112 0.00055773038 0 23
15.094766 12.789493 0.46112671 0 24
15.314587 12.975743 0.93561828 0 25
15.57434 13.195827 1.4282312 0 26
15.880532 13.455257 1.944013 0 27
13.815555 12.403726 -1.2979866 0 20
13.794614 12.384926 -0.86305571 0 21
13.920918 12.498322 -0.43497604 0 22
14.053663 12.617501 0.00053918432 0 23
14.242259 12.786825 0.44611016 0 24
14.437521 12.962133 0.9043892 0 25
14.64531 13.148688 1.3770725 0 26
14.93017 13.404437 1.873994 0 27
13.043596 12.404593 -1.2583878 0 20
13.03513 12.396542 -0.83745193 0 21
13.161261 12.516493 -0.42228943 0 22
13.281472 12.630816 0.00052324997 0 23
13.44536 12.786674 0.43246496 0 24
13.611009 12.944208 0.87552446 0 25
13.799407 13.123377 1.3323977 0 26
14.0336 13.346096 1.8087884 0 27
12.330809 12.419555 -1.2235032 0 20
12.320112 12.408782 -0.81405848 0 21
12.429475 12.51893 -0.41016811 0 22
12.536156 12.626379 0.00050795329 0 23
12.680433 12.771696 0.41947779 0 24
12.820976 12.91325 0.84819454 0 25
12.974049 13.067424 1.2883842 0 26
13.193719 13.288675 1.7489699 0 27
11.627766 12.403672 -1.1885754 0 20
11.640123 12.416855 -0.79234701 0 21
11.735829 12.518948 -0.39896962 0 22
11.844967 12.635367 0.00049443607 0 23
11.960843 12.758976 0.40761822 0 24
12.094599 12.901657 0.82429522 0 25
12.225254 13.041031 1.2506757 0 26
12.419798 13.248556 1.6960809 0 27
10.991835 12.420999 -1.159531 0 20
10.998594 12.428638 -0.77263916 0 21
11.090932 12.53298 -0.38911298 0 22
11.177745 12.631082 0.00048151761 0 23
11.279402 12.745955 0.39669758 0 24
11.395204 12.876815 0.80148441 0 25
11.510859 13.007507 1.2152796 0 26
11.685213 13.204531 1.6468359 0 27
10.372851 12.422059 -1.1313747 0 20
10.388656 12.440985 -0.75456214 0 21
10.453612 12.518775 -0.37920168 0 22
10.543579 12.626514 0.00046961528 0 23
10.628616 12.728352 0.38649723 0 24
10.731198 12.851199 0.78040022 0 25
10.828461 12.967675 1.1820377 0 26
11.006024 13.180318 1.6037635 0 27
9.7769842 12.415757 -1.1047912 0 20
9.7914171 12.434086 -0.73679763 0 21
9.8539438 12.513489 -0.37032321 0 22
9.9405203 12.623431 0.00045870154 0 23
10.01857 12.722547 0.37743515 0 24
10.085173 12.807124 0.75983524 0 25
10.179638 12.927086 1.1512347 0 26
9.2192392 12.424864 -1.0816134 0 20
9.2229109 12.429811 -0.72056359 0 21
9.291564 12.522336 -0.36254451 0 22
9.348156 12.598606 0.00044786671 0 23
9.4200773 12.695535 0.36846206 0 24
9.5090227 12.815407 0.74382997 0 25
9.5644836 12.890153 1.1230389 0 26
8.6765203 12.422915 -1.0593317 0 20
8.6839161 12.433504 -0.70603997 0 21
8.740202 12.514093 -0.35489783 0 22
8.8045511 12.606228 0.00043897459 0 23
8.8621244 12.688661 0.3607327 0 24
8.9317274 12.788317 0.7270807 0 25
8.9860487 12.866094 1.0980229 0 26
8.159708 12.427773 -1.0393498 0 20
8.1687632 12.441565 -0.69290036 0 21
8.2149286 12.511877 -0.34800577 0 22
8.2735806 12.601208 0.00043035459 0 23
8.3232689 12.676887 0.35346168 0 24
8.3810663 12.764916 0.71178234 0 25
8.431035 12.841022 1.0747917 0 26
7.6604638 12.430563 -1.0207772 0 20
7.6667085 12.440696 -0.68031836 0 21
7.6993756 12.493704 -0.34121409 0 22
7.7583714 12.589437 0.00042217478 0 23
7.8031497 12.662098 0.34666276 0 24
7.8412995 12.724003 0.69666624 0 25
7.8923812 12.806893 1.052544 0 26
7.1661358 12.412086 -1.0019593 0 20
7.1824598 12.44036 -0.66875285 0 21
7.2137184 12.494501 -0.33544382 0 22
7.2512126 12.559443 0.00041402021 0 23
7.2998419 12.643671 0.34028268 0 24
7.3405113 12.714112 0.68430895 0 25
7.391448 12.802338 1.0343105 0 26
6.7037444 12.420994 -0.98674202 0 20
6.7138634 12.439742 -0.65809107 0 21
6.7452989 12.497987 -0.33020443 0 22
6.7801771 12.562612 0.0004075426 0 23
6.8153744 12.627827 0.33445463 0 24
6.8445783 12.681936 0.67172831 0 25
6.8876319 12.761708 1.0146409 0 26
6.2415771 12.403316 -0.97070837 0 20
6.2560587 12.432095 -0.6479218 0 21
6.2739415 12.467631 -0.32451174 0 22
6.3153925 12.550003 0.00040108885 0 23
6.3548021 12.628318 0.32950178 0 24
6.3774972 12.673418 0.66131061 0 25
6.4103255 12.738654 0.99777073 0 26
5.8037729 12.407454 -0.95760274 0 20
5.8079815 12.416451 -0.63815701 0 21
5.8373146 12.47916 -0.32031965 0 22
5.8718123 12.55291 0.0003956334 0 23
5.8957839 12.604157 0.32432306 0 24
5.9146767 12.644547 0.65067899 0 25
5.9508371 12.721851 0.98267365 0 26
5.3799148 12.417551 -0.94607645 0 20
5.3799586 12.417653 -0.63002408 0 21
5.4001222 12.464192 -0.31582752 0 22
5.429728 12.532527 0.00038991933 0 23
5.4611092 12.604959 0.32017913 0 24
5.4742551 12.635302 0.6418547 0 25
5.5085535 12.714466 0.96949303 0 26
4.9536757 12.39707 -0.93330067 0 20
4.9623294 12.418726 -0.62259686 0 21
4.9812188 12.465999 -0.31212255 0 22
5.001421 12.516557 0.00038479839 0 23
5.0189524 12.560431 0.31525964 0 24
5.0425806 12.619562 0.63344318 0 25
5.077599 12.7072 0.95743364 0 26
4.5483336 12.404049 -0.92361909 0 20
4.5562215 12.425561 -0.61613059 0 21
4.573617 12.473001 -0.30888435 0 22
4.5853887 12.505105 0.00038024419 0 23
4.6037211 12.555099 0.31168142 0 24
4.6174808 12.592625 0.62518209 0 25
4.6617532 12.713363 0.94742787 0 26
4.1487069 12.404061 -0.91437823 0 20
4.1536179 12.418745 -0.60963094 0 21
4.1597981 12.437223 -0.3049165 0 22
4.1843939 12.51076 0.00037660971 0 23
4.1990147 12.554476 0.30854738 0 24
4.2058783 12.574997 0.61806005 0 25
3.7571344 12.405581 -0.90616888 0 20
3.7595637 12.413603 -0.60383356 0 21
3.7697115 12.447109 -0.30238208 0 22
3.7835369 12.492759 0.00037264577 0 23
3.7907259 12.516497 0.30481485 0 24
3.8015435 12.552215 0.61132646 0 25
3.3767738 12.423842 -0.90005362 0 20
3.3701148 12.399343 -0.59818906 0 21
3.3826599 12.445498 -0.29986119 0 22
3.3894126 12.470344 0.00036892379 0 23
3.4001276 12.509766 0.30215022 0 24
3.4109886 12.549725 0.60618818 0 25
2.9948235 12.415415 -0.89284903 0 20
2.9898388 12.394752 -0.5935837 0 21
2.9981461 12.429189 -0.29727277 0 22
3.0080073 12.470071 0.00036621111 0 23
3.0160041 12.503222 0.29977822 0 24
3.0230954 12.532619 0.6009239 0 25
2.6157374 12.393401 -0.88550293 0 20
2.6126859 12.378942 -0.58899337 0 21
2.619628 12.411835 -0.29493821 0 22
2.6299798 12.460882 0.00036357509 0 23
2.6342473 12.481101 0.29731289 0 24
2.6449735 12.531921 0.59700507 0 25
2.2466111 12.394221 -0.88059235 0 20
2.2454185 12.387642 -0.58609992 0 21
2.2511048 12.419012 -0.29345283 0 22
2.260608 12.471439 0.00036184126 0 23
2.2602961 12.46972 0.29537499 0 24
2.2675238 12.509594 0.59259737 0 25
1.8814325 12.39619 -0.87653518 0 20
1.87691 12.366391 -0.58230627 0 21
1.8821154 12.400688 -0.29162347 0 22
1.8883201 12.44157 0.00035925445 0 23
1.8893609 12.448427 0.29346541 0 24
1.8926518 12.47011 0.58791184 0 25
1.5201488 12.405011 -0.87371451 0 20
1.5165139 12.37535 -0.58043981 0 21
1.5193366 12.398383 -0.29042432 0 22
1.5231526 12.429523 0.00035749722 0 23
1.5238647 12.435334 0.2920056 0 24
1.5294535 12.480942 0.5861119 0 25
1.1604836 12.409459 -0.87132335 0 20
1.1547855 12.348528 -0.57738972 0 21
1.1588887 12.392405 -0.28938606 0 22
1.1603662 12.408204 0.00035577978 0 23
1.1619017 12.424623 0.29085132 0 24
1.1665605 12.474442 0.58399409 0 25
0.80270863 12.417302 -0.86989838 0 20
0.79827821 12.348766 -0.57609248 0 21
0.79975605 12.371627 -0.28824624 0 22
0.80195242 12.405603 0.00035489921 0 23
0.80181962 12.40355 0.28970009 0 24
0.44583106 12.42575 -0.86923605 0 20
0.44288376 12.343606 -0.57502204 0 21
0.44378608 12.368754 -0.2877641 0 22
0.44430873 12.383321 0.0003537513 0 23
0.44484875 12.398372 0.28916192 0 24
0.08908055 12.417087 -0.86809379 0 20
0.088521339 12.339137 -0.57445902 0 21
0.08876761 12.373466 -0.287696 0 22
0.088788584 12.37639 0.00035333502 0 23
0.088802077 12.378269 0.28851485 0 24
-0.26802021 12.454624 -0.87089723 0 20
-0.26551169 12.338057 -0.57452697 0 21
-0.26598895 12.360234 -0.28744751 0 22
-0.26606718 12.363869 0.00035305021 0 23
-0.26578751 12.350874 0.28793555 0 24
-0.62715167 12.480887 -0.87363261 0 20
-0.61954606 12.32953 -0.57472122 0 21
-0.62075061 12.353501 -0.28758681 0 22
-0.62102836 12.359029 0.00035327548 0 23
-0.62036091 12.345746 0.28811243 0 24
-0.97337902 12.311721 -0.57495648 0 21
-0.97507775 12.333207 -0.28764737 0 22
-0.97541291 12.337446 0.00035331328 0 23
-0.97592932 12.343979 0.28860599 0 24
-1.3311707 12.32515 -0.57713008 0 21
-1.3322895 12.335509 -0.28847402 0 22
-1.3302674 12.316788 0.00035366931 0 23
-1.3321645 12.334352 0.28915572 0 24
-1.6886891 12.314725 -0.57867289 0 21
-1.6901207 12.325165 -0.2892473 0 22
-1.6925677 12.34301 0.00035567061 0 23
-1.6904646 12.327673 0.29001701 0 24
-2.0493927 12.31007 -0.58097863 0 21
-2.0484769 12.30457 -0.29002422 0 22
-2.0463367 12.291714 0.00035573824 0 23
-2.4154584 12.316467 -0.58431154 0 21
-2.4140406 12.309237 -0.29164711 0 22
-2.4124041 12.300894 0.00035786023 0 23
-2.7862041 12.323603 -0.58820128 0 21
-2.781179 12.301376 -0.29323119 0 22
-2.7751436 12.274681 0.00035926671 0 23
-3.1825507 12.410076 -0.29787681 0 22
