# .PCD v0.7 - Point Cloud Data file format
VERSION 0.7
FIELDS x y z intensity ring
SIZE 4 4 4 4 2
TYPE F F F F U
COUNT 1 1 1 1 1
WIDTH 426
HEIGHT 1
VIEWPOINT 0 0 0 1 0 0 0
POINTS 426
DATA ascii
15.192202 32.478279 -21.264235 0 0
13.921128 32.131798 -20.767267 0 0
13.884246 32.046669 -19.628246 0 1
12.946828 32.400734 -20.692425 0 0
12.842085 32.138603 -19.450817 0 1
12.769174 31.956135 -18.29987 0 2
12.871528 32.212288 -17.423349 0 3
12.000223 32.72657 -20.672071 0 0
11.896785 32.444477 -19.42131 0 1
11.800719 32.182491 -18.228052 0 2
11.711388 31.938868 -17.086634 0 3
11.665263 31.81308 -16.042963 0 4
11.087925 33.151371 -20.730867 0 0
10.985547 32.845272 -19.464497 0 1
10.88132 32.533649 -18.242565 0 2
10.785262 32.246449 -17.078566 0 3
10.692567 31.969301 -15.960428 0 4
10.614412 31.73563 -14.900538 0 5
10.637441 31.804482 -14.006986 0 6
10.199273 33.676704 -20.867752 0 0
10.086536 33.304466 -19.557026 0 1
9.9871359 32.976257 -18.322493 0 2
9.8955069 32.67371 -17.14739 0 3
9.7971468 32.348934 -16.003002 0 4
9.7073145 32.052319 -14.912292 0 5
9.6132612 31.74177 -13.852161 0 6
9.544323 31.514145 -12.861253 0 7
9.2114105 33.890663 -19.737894 0 1
9.1072474 33.507427 -18.464804 0 2
9.0178003 33.178333 -17.269295 0 3
8.9318123 32.861965 -16.123356 0 4
8.8401461 32.524708 -15.007859 0 5
8.7475147 32.183899 -13.929819 0 6
8.6508217 31.828144 -12.882776 0 7
8.5608978 31.497295 -11.881006 0 8
8.5160036 31.332123 -10.969906 0 9
8.2467947 34.188118 -18.70179 0 2
8.1463814 33.771843 -17.449345 0 3
8.065855 33.438011 -16.285709 0 4
7.9822927 33.091595 -15.157494 0 5
7.9014297 32.756367 -14.073655 0 6
7.8083911 32.370663 -13.00631 0 7
7.7105632 31.965105 -11.969071 0 8
7.6122823 31.557669 -10.967872 0 9
7.5390329 31.254005 -10.034978 0 10
7.5331717 31.229706 -9.2123909 0 11
7.2951441 34.564495 -17.743418 0 3
7.1965952 34.097569 -16.499559 0 4
7.1225376 33.746685 -15.357606 0 5
7.0482793 33.394848 -14.255201 0 6
6.9657707 33.003922 -13.175004 0 7
6.8785901 32.590858 -12.124472 0 8
6.7814875 32.130783 -11.094851 0 9
6.6832318 31.665247 -10.101278 0 10
6.5979824 31.261335 -9.1620922 0 11
6.5472813 31.021111 -8.2982426 0 12
6.5911217 31.228827 -7.564724 0 13
7.2887087 34.534004 5.8028173 0 30
7.2366366 34.287289 6.6023884 0 31
6.3618603 35.097443 -16.888092 0 4
6.2489219 34.47438 -15.600734 0 5
6.1801472 34.094959 -14.472389 0 6
6.1082458 33.698292 -13.376709 0 7
6.0339012 33.288143 -12.314386 0 8
5.9474235 32.811054 -11.266176 0 9
5.8532777 32.291668 -10.243305 0 10
5.7476959 31.70919 -9.2412024 0 11
5.6595416 31.222855 -8.3053427 0 12
5.6068597 30.932217 -7.450829 0 13
5.6085739 30.941673 -6.6841989 0 14
5.6662502 31.259867 -5.9837704 0 15
6.0550213 33.404659 5.5815544 0 30
6.0385823 33.313965 6.3789682 0 31
5.2950573 34.887527 -14.738244 0 6
5.229526 34.455765 -13.612213 0 7
5.1640868 34.024605 -12.526848 0 8
5.0926085 33.553658 -11.466256 0 9
5.0031438 32.964199 -10.40681 0 10
4.9049196 32.317028 -9.3734665 0 11
4.8031459 31.646473 -8.3779106 0 12
4.7182379 31.08704 -7.4524388 0 13
4.6750541 30.802515 -6.6224275 0 14
4.6632495 30.724741 -5.8533096 0 15
4.6776199 30.819422 -5.1232219 0 16
4.7236209 31.122509 -4.4238811 0 17
4.9930873 32.897938 5.4706922 0 30
4.9025655 32.301521 6.1556306 0 31
4.3282518 35.320236 -13.89894 0 7
4.2633934 34.790966 -12.758699 0 8
4.2021565 34.291248 -11.672297 0 9
4.1317844 33.716984 -10.602665 0 10
4.0432587 32.994579 -9.5324078 0 11
3.9478385 32.215912 -8.4951696 0 12
3.8579795 31.482628 -7.5176353 0 13
3.7921295 30.945267 -6.6269922 0 14
3.7549205 30.641626 -5.8145528 0 15
3.7417531 30.534176 -5.0558724 0 16
3.7439563 30.552155 -4.3257551 0 17
3.7628214 30.7061 -3.6155686 0 18
3.7686696 30.753826 -2.8920457 0 19
3.7162852 30.326347 -2.1359568 0 20
3.7711143 30.773775 -1.4433794 0 21
4.1482716 33.851524 0.00097363559 0 23
4.0829434 33.318424 0.7823807 0 24
3.8880322 31.727869 5.2553997 0 30
3.8052721 31.052515 5.8943725 0 31
3.2801888 35.07621 -11.902545 0 9
3.2227185 34.461662 -10.803306 0 10
3.1631169 33.824322 -9.74189 0 11
3.0943561 33.089039 -8.69841 0 12
3.0185606 32.27853 -7.6838369 0 13
2.9455957 31.498289 -6.7245517 0 14
2.8928642 30.934414 -5.8519487 0 15
2.8647501 30.633781 -5.0566702 0 16
2.8536603 30.515192 -4.3071532 0 17
2.8354261 30.320208 -3.5590839 0 18
2.7856674 29.78812 -2.7925646 0 19
2.7929108 29.865576 -2.0969951 0 20
2.8067391 30.013447 -1.403362 0 21
2.7961683 29.900412 -0.69823116 0 22
2.7473233 29.378094 0.00084235653 0 23
2.7350476 29.246824 0.68464673 0 24
2.7572536 29.484283 1.380314 0 25
2.8229818 30.187136 2.1213129 0 26
2.8640459 30.626249 2.8729088 0 27
2.8338859 30.303738 3.5589123 0 28
2.8148525 30.100206 4.250339 0 29
2.8749452 30.742798 5.0764761 0 30
2.859309 30.575596 5.7858863 0 31
2.2749383 35.191593 -11.007132 0 10
2.2324259 34.533958 -9.9237375 0 11
2.1909308 33.892063 -8.8893204 0 12
2.1474836 33.219963 -7.8900247 0 13
2.1078038 32.606148 -6.9452944 0 14
2.0754335 32.105404 -6.0597062 0 15
2.029521 31.39517 -5.1706085 0 16
1.9867846 30.73407 -4.3282175 0 17
1.9320238 29.886963 -3.5002787 0 18
1.9240328 29.763348 -2.7839198 0 19
1.9211001 29.717981 -2.0819035 0 20
1.8823409 29.118406 -1.3584268 0 21
1.8369995 28.417009 -0.6620872 0 22
1.8155483 28.085173 0.00080345996 0 23
1.8099036 27.997854 0.65392417 0 24
1.8180647 28.1241 1.3136532 0 25
1.8424193 28.500847 1.9982755 0 26
1.8985064 29.368473 2.7486801 0 27
1.9311906 29.874073 3.5005019 0 28
1.9266648 29.804064 4.1989856 0 29
1.9277241 29.82045 4.9130135 0 30
1.9754181 30.558239 5.7694983 0 31
1.4066501 39.20472 -23.26524 0 0
1.4061356 39.19038 -22.039558 0 1
1.4065653 39.202358 -20.860203 0 2
1.4056107 39.175751 -19.689741 0 3
1.406335 39.195938 -18.569731 0 4
1.405769 39.180161 -17.457186 0 5
1.4059505 39.185223 -16.376905 0 6
1.4058887 39.183498 -15.314543 0 7
1.4055567 39.174248 -14.268664 0 8
1.4055716 39.17466 -13.244056 0 9
1.4057152 39.178665 -12.236542 0 10
1.2690699 35.370224 -10.149405 0 11
1.2367806 34.470291 -9.0279541 0 12
1.2107357 33.744392 -8.0030327 0 13
1.1922294 33.228603 -7.0676832 0 14
1.4055104 39.172958 -7.3830128 0 15
1.4051061 39.161686 -6.4404173 0 16
1.1028663 30.737965 -4.3225293 0 17
1.0857913 30.262074 -3.5391042 0 18
1.0762285 29.995544 -2.8015959 0 19
1.0484848 29.222301 -2.044229 0 20
1.0132555 28.240425 -1.3155692 0 21
0.9962762 27.767197 -0.64601511 0 22
0.98783654 27.531975 0.00078649924 0 23
0.98484725 27.44866 0.64017332 0 24
0.98868912 27.555737 1.285251 0 25
0.99842483 27.82708 1.9482247 0 26
1.0192486 28.407461 2.6549056 0 27
1.0639979 29.654667 3.4697864 0 28
1.0691351 29.797846 4.1920609 0 29
1.072788 29.899656 4.9189653 0 30
1.1024698 30.726915 5.7929864 0 31
0.27511403 38.348602 -22.743145 0 0
0.2751497 38.35358 -21.555651 0 1
0.27517349 38.356892 -20.397715 0 2
0.2751846 38.35844 -19.267061 0 3
0.27524912 38.367432 -18.165993 0 4
0.27517161 38.356632 -17.079702 0 5
0.27517861 38.357609 -16.021118 0 6
0.27521116 38.362141 -14.984266 0 7
0.27524692 38.36713 -13.966056 0 8
0.27525249 38.367905 -12.963303 0 9
0.27529234 38.373459 -11.977655 0 10
0.27522624 38.364246 -11.001737 0 11
0.27529806 38.374256 -10.044219 0 12
0.27534464 38.380749 -9.097002 0 13
0.27530932 38.375824 -8.1574516 0 14
0.2752445 38.366795 -7.2266092 0 15
0.27540019 38.388493 -6.3093629 0 16
0.27135241 37.824265 -5.3157573 0 17
0.22684765 31.620674 -3.6957078 0 18
0.21800485 30.38806 -2.8365049 0 19
0.20629957 28.756443 -2.0103981 0 20
0.20050445 27.94865 -1.3011732 0 21
0.19736215 27.510641 -0.63965112 0 22
0.19586739 27.302282 0.00077945617 0 23
0.19552957 27.255192 0.63526875 0 24
0.19583908 27.298336 1.2724594 0 25
0.1976535 27.551252 1.9277227 0 26
0.20133682 28.064674 2.6212502 0 27
0.20860325 29.077557 3.4001603 0 28
0.21563949 30.05835 4.226099 0 29
0.21760847 30.332808 4.9871449 0 30
-0.82476908 38.326176 -22.734522 0 0
-0.82503575 38.338566 -21.551649 0 1
-0.82500207 38.337002 -20.391333 0 2
-0.82490623 38.332546 -19.258015 0 3
-0.82512665 38.342789 -18.15806 0 4
-0.82518595 38.345547 -17.078279 0 5
-0.82523412 38.347782 -16.020311 0 6
-0.82562822 38.366096 -14.988895 0 7
-0.82533842 38.352631 -13.963651 0 8
-0.82520443 38.346405 -12.958704 0 9
-0.82527208 38.349548 -11.972655 0 10
-0.8252995 38.350822 -11.000151 0 11
-0.82579023 38.373627 -10.046121 0 12
-0.82554418 38.362194 -9.0944748 0 13
-0.82549644 38.359974 -8.1557608 0 14
-0.82579267 38.373741 -7.2294049 0 15
-0.82610422 38.388218 -6.310616 0 16
-0.81395894 37.823837 -5.3167911 0 17
-0.81431341 37.840309 -4.4235458 0 18
-0.65420789 30.400372 -2.838238 0 19
-0.61901307 28.764904 -2.0114036 0 20
-0.60147142 27.949762 -1.3014927 0 21
-0.59237152 27.526897 -0.64016086 0 22
-0.5877642 27.312801 0.00077991694 0 23
-0.58644158 27.251341 0.6353097 0 24
-0.58816725 27.33153 1.2742689 0 25
-0.59314162 27.562683 1.9289193 0 26
-0.60392928 28.063974 2.6217241 0 27
-0.62598687 29.088968 3.402195 0 28
-0.66459072 30.882851 4.3429146 0 29
-1.9637372 39.080158 -23.205647 0 0
-1.9639562 39.084515 -21.993603 0 1
-1.9643357 39.092068 -20.814365 0 2
-1.9648262 39.101826 -19.66473 0 3
-1.9653187 39.111629 -18.541237 0 4
-1.9650433 39.106148 -17.434975 0 5
-1.9655323 39.115879 -16.358025 0 6
-1.9660971 39.127121 -15.301956 0 7
-1.9664701 39.134541 -14.263009 0 8
-1.9673768 39.152588 -13.244772 0 9
-1.9669356 39.143806 -12.233208 0 10
-1.9678807 39.162617 -11.244565 0 11
-1.9671335 39.147747 -10.259338 0 12
-1.967651 39.158043 -9.2927065 0 13
-1.9690356 39.185596 -8.3398781 0 14
-1.9685974 39.17688 -7.3883133 0 15
-1.9694927 39.194695 -6.4498286 0 16
-1.9277682 38.364338 -5.3983221 0 17
-1.9268372 38.345814 -4.4872561 0 18
-1.5726682 31.297527 -2.9250076 0 19
-1.4707525 29.269312 -2.0487826 0 20
-1.4212751 28.284668 -1.3184443 0 21
-1.3960834 27.783329 -0.64678979 0 22
-1.383732 27.537523 0.00078714377 0 23
-1.3800024 27.463303 0.64091057 0 24
-1.3842047 27.546932 1.2856342 0 25
-1.3988699 27.838783 1.9502481 0 26
-1.4292835 28.444042 2.6599667 0 27
-1.4934169 29.720354 3.4796207 0 28
-2.4188097 30.594156 -2.1454942 0 20
-2.3062036 29.169865 -1.3622305 0 21
-2.2491014 28.447615 -0.66348368 0 22
-2.2223811 28.109642 0.00080498907 0 23
-2.2158952 28.027605 0.65529394 0 24
-2.2262137 28.158119 1.3165984 0 25
-2.2582958 28.563908 2.0047617 0 26
-2.3312469 29.486624 2.7625835 0 27
-2.5030615 31.659811 3.7135711 0 28
-3.2833836 30.400459 -1.4235135 0 21
-3.2318876 29.923662 -0.69978458 0 22
-3.1872845 29.510687 0.00084738201 0 23
-3.1716943 29.366339 0.68843865 0 24
-3.1978071 29.608114 1.3881158 0 25
-3.28284 30.395426 2.1390386 0 26
-3.5669866 33.026302 3.1025274 0 27
-4.172317 30.426523 -1.4297521 0 21
-4.1069913 29.950134 -0.70287061 0 22
-4.0805621 29.757402 0.00085747591 0 23
-4.0869746 29.804165 0.70116359 0 24
-4.1309853 30.125113 1.4173286 0 25
-4.2371364 30.899214 2.1821508 0 26
-5.0934463 30.594763 -0.72113228 0 22
-5.0517254 30.344156 0.00087819953 0 23
-5.0672541 30.437433 0.71918672 0 24
-5.146699 30.914635 1.4608217 0 25
-6.0423207 30.809906 -0.72998995 0 22
-5.9838934 30.511986 0.00088766124 0 23
-5.9980478 30.584158 0.72642171 0 24
-6.0992274 31.100075 1.4772474 0 25
-6.9868212 30.903267 -0.73664939 0 22
-6.9111381 30.568514 0.00089470751 0 23
-6.9264832 30.636387 0.73208213 0 24
-7.0412302 31.143923 1.4883157 0 25
-7.3187094 32.371235 2.3220761 0 26
-7.50072 33.176281 3.1768022 0 27
-7.6587605 33.875309 4.0610538 0 28
-7.9485164 30.994541 -0.74395633 0 22
-7.871933 30.69591 0.00090467586 0 23
-7.9044194 30.822586 0.74164677 0 24
-8.046854 31.378 1.5099159 0 25
-8.3442736 32.537762 2.3502316 0 26
-8.6013899 33.540363 3.2339702 0 27
-8.7982988 34.308189 4.1415133 0 28
-8.9222145 31.059582 -0.7513541 0 22
-8.8604622 30.844614 0.00091617549 0 23
-8.9363756 31.108879 0.75439572 0 24
-9.128891 31.779057 1.5411869 0 25
-9.4408693 32.865097 2.3924603 0 26
-9.7492027 33.938454 3.2979732 0 27
-9.9812202 34.746143 4.2272186 0 28
-9.8981838 31.069126 -0.7581445 0 22
-9.8830605 31.021658 0.00092947611 0 23
-10.034364 31.49658 0.77046359 0 24
-10.275626 32.253868 1.5778657 0 25
-10.59041 33.24194 2.4410126 0 26
-10.919021 34.273403 3.3595891 0 27
-11.199856 35.154907 4.3142762 0 28
-10.902514 31.106627 -0.76637894 0 22
-10.948137 31.236795 0.00094494689 0 23
-11.177757 31.891939 0.78765738 0 24
-11.462524 32.704426 1.6153344 0 25
-11.778352 33.605534 2.4915073 0 26
-12.098206 34.518127 3.4162045 0 27
-12.430885 35.467316 4.3945861 0 28
-11.934074 31.156256 -0.77572018 0 22
-12.046305 31.449253 0.00096143619 0 23
-12.315248 32.151382 0.80246347 0 24
-12.63023 32.973705 1.64586 0 25
-12.963035 33.84256 2.5356178 0 26
-13.292648 34.703079 3.4708343 0 27
-13.680837 35.716522 4.4722705 0 28
-13.002542 31.232538 -0.78658617 0 22
-13.162709 31.617266 0.00097771804 0 23
-13.462213 32.336681 0.81639487 0 24
-13.791099 33.126678 1.6725619 0 25
-14.121208 33.919609 2.5706954 0 26
-14.470236 34.757988 3.5164111 0 27
-14.117517 31.344872 -0.79928976 0 22
-14.302283 31.755102 0.00099426368 0 23
-14.608363 32.434685 0.82911205 0 24
-14.949309 33.191681 1.6968064 0 25
-15.297593 33.96497 2.6063321 0 26
-15.666999 34.785156 3.5631797 0 27
-15.270131 31.46113 -0.81309426 0 22
-15.462857 31.858204 0.0010109697 0 23
-15.779607 32.510807 0.842287 0 24
-16.122272 33.216801 1.7210349 0 25
-16.481153 33.956207 2.6408668 0 26
-16.87812 34.774078 3.6101744 0 27
-16.451206 31.556541 -0.82742113 0 22
-16.658508 31.954184 0.0010287628 0 23
-16.973392 32.558193 0.85578227 0 24
-17.321459 33.225849 1.7465402 0 25
-17.684399 33.922035 2.6765778 0 26
-18.124125 34.765514 3.6617768 0 27
-17.678768 31.660995 -0.84311563 0 22
-17.895994 32.05003 0.0010479518 0 23
-18.207958 32.608723 0.87048674 0 24
-18.545755 33.213688 1.7731479 0 25
-18.924488 33.89196 2.715939 0 26
-19.446781 34.827339 3.7255366 0 27
-18.962065 31.781641 -0.86046523 0 22
-19.159384 32.112362 0.0010675286 0 23
-19.473255 32.638428 0.88583338 0 24
-19.814878 33.21101 1.8026208 0 25
-20.212156 33.876877 2.7600765 0 26
-20.275311 31.868008 -0.87819558 0 22
-20.47941 32.188805 0.0010891595 0 23
-20.782278 32.664841 0.90236592 0 24
-21.138359 33.224518 1.8355249 0 25
-21.538279 33.853096 2.807343 0 26
-21.640194 31.95104 -0.89722836 0 22
-21.845835 32.254662 0.0011121434 0 23
-22.148582 32.70166 0.9205631 0 24
-22.504818 33.227627 1.8706073 0 25
-22.958666 33.89772 2.8645027 0 26
-23.059704 32.028038 -0.91759622 0 22
-23.271257 32.321865 0.0011370197 0 23
-23.573565 32.741749 0.94034868 0 24
-23.943798 33.25597 1.9101005 0 25
-24.469395 33.985981 2.9300961 0 26
-24.546537 32.108845 -0.93970656 0 22
-24.751499 32.376949 0.0011634663 0 23
-25.069551 32.792988 0.96208698 0 24
-25.461264 33.305382 1.9541022 0 25
-26.097294 32.180378 -0.96332222 0 22
-26.308401 32.440693 0.001192397 0 23
-26.633083 32.841053 0.98551524 0 24
-27.045031 33.349022 2.0013769 0 25
-27.728497 32.254631 -0.98895895 0 22
-27.933676 32.493301 0.0012232926 0 23
-28.273968 32.889141 1.0108914 0 24
-28.698032 33.382423 2.0519621 0 25
-29.431765 32.312607 -1.0162156 0 22
-29.63459 32.535286 0.0012563735 0 23
-29.985546 32.920593 1.0378804 0 24
-30.415667 33.392815 2.1053882 0 25
-31.22361 32.364079 -1.0455846 0 22
-31.416077 32.563576 0.0012917494 0 23
-31.762285 32.922428 1.0662366 0 24
-33.135265 32.429962 -1.0779907 0 22
-33.277073 32.568752 0.0013292907 0 23
-33.609509 32.894112 1.0961058 0 24
-35.20216 32.528969 -1.1144038 0 22
-35.236488 32.560692 0.0013696707 0 23
-35.538929 32.840164 1.1278294 0 24
-37.319061 32.550915 0.0014137288 0 23
-37.575825 32.774872 1.1621425 0 24
-39.510937 32.51495 0.0014608118 0 23
-41.832336 32.458237 0.0015115775 0 23
-44.332066 32.404011 0.0015676554 0 23
-46.966179 32.303913 0.0016273494 0 23
