# .PCD v0.7 - Point Cloud Data file format
VERSION 0.7
FIELDS x y z intensity ring
SIZE 4 4 4 4 2
TYPE F F F F U
COUNT 1 1 1 1 1
WIDTH 428
HEIGHT 1
VIEWPOINT 0 0 0 1 0 0 0
POINTS 428
DATA ascii
15.143709 32.374607 -21.19636 0 0
13.922342 32.134598 -20.769077 0 0
13.879728 32.03624 -19.621859 0 1
12.949858 32.408318 -20.697269 0 0
12.846752 32.150284 -19.457886 0 1
12.765742 31.947548 -18.294952 0 2
12.837121 32.126179 -17.376776 0 3
12.010184 32.753735 -20.68923 0 0
11.899374 32.451538 -19.425537 0 1
11.804906 32.193909 -18.23452 0 2
11.713158 31.943695 -17.089216 0 3
11.658735 31.795277 -16.033985 0 4
11.091652 33.162514 -20.737835 0 0
10.982738 32.836876 -19.459518 0 1
10.886095 32.547924 -18.25057 0 2
10.790396 32.261795 -17.086695 0 3
10.692133 31.968004 -15.959781 0 4
10.6142 31.734995 -14.900241 0 5
10.618083 31.746605 -13.981496 0 6
10.20605 33.699085 -20.881618 0 0
10.088745 33.31176 -19.561308 0 1
9.992774 32.994873 -18.332836 0 2
9.900218 32.689266 -17.155554 0 3
9.8082514 32.385601 -16.021141 0 4
9.7119379 32.067589 -14.919395 0 5
9.6160059 31.750832 -13.856116 0 6
9.5443115 31.514107 -12.861238 0 7
9.6560011 31.882893 -12.125992 0 8
9.2177563 33.914013 -19.751493 0 1
9.1138239 33.531624 -18.47814 0 2
9.0235844 33.199615 -17.280371 0 3
8.9350042 32.873711 -16.129116 0 4
8.8481674 32.554218 -15.021476 0 5
8.7521067 32.20079 -13.937131 0 6
8.655221 31.84433 -12.889328 0 7
8.5622663 31.502333 -11.882907 0 8
8.510601 31.312244 -10.962946 0 9
8.2552147 34.223022 -18.720884 0 2
8.1553249 33.808918 -17.468502 0 3
8.0665112 33.440731 -16.287033 0 4
7.9901967 33.124359 -15.172502 0 5
7.9059067 32.774925 -14.081629 0 6
7.8140445 32.3941 -13.015727 0 7
7.7161403 31.988224 -11.977729 0 8
7.6211209 31.594311 -10.980606 0 9
7.5355215 31.239447 -10.030303 0 10
7.5235624 31.189869 -9.2006388 0 11
7.3039403 34.606171 -17.764812 0 3
7.2044506 34.134789 -16.51757 0 4
7.1265254 33.765579 -15.366204 0 5
7.049953 33.402775 -14.258586 0 6
6.9703884 33.025799 -13.183738 0 7
6.8826399 32.610043 -12.13161 0 8
6.7901626 32.171886 -11.109044 0 9
6.6916013 31.704903 -10.113928 0 10
6.5985231 31.263895 -9.1628428 0 11
6.5498719 31.033386 -8.3015261 0 12
6.5820503 31.185848 -7.5543127 0 13
7.2605085 34.400391 5.7803659 0 30
7.221561 34.215858 6.588634 0 31
6.257761 34.523144 -15.622802 0 5
6.184731 34.120247 -14.483124 0 6
6.1160703 33.741455 -13.393844 0 7
6.0370698 33.305622 -12.320853 0 8
5.9538145 32.846313 -11.278283 0 9
5.8585749 32.320892 -10.252575 0 10
5.7567201 31.758974 -9.2557106 0 11
5.663548 31.244957 -8.3112221 0 12
5.6051712 30.922899 -7.448585 0 13
5.6047597 30.920631 -6.6796532 0 14
5.6545496 31.195312 -5.9714136 0 15
6.046917 33.359947 5.5740838 0 30
6.0295305 33.26403 6.3694067 0 31
5.3008494 34.92569 -14.754366 0 6
5.2323337 34.474262 -13.619521 0 7
5.1664038 34.039871 -12.532468 0 8
5.0966907 33.580551 -11.475447 0 9
5.0092273 33.00428 -10.419463 0 10
4.9078259 32.336182 -9.3790207 0 11
4.8080049 31.67849 -8.3863859 0 12
4.722723 31.116592 -7.4595232 0 13
4.6716309 30.779961 -6.617578 0 14
4.6587038 30.69479 -5.8476038 0 15
4.6716204 30.779894 -5.1166511 0 16
4.7155809 31.069534 -4.4163508 0 17
4.9925914 32.894676 5.4701495 0 30
4.8882823 32.207413 6.1376963 0 31
4.3341389 35.368275 -13.917845 0 7
4.2674623 34.824169 -12.770876 0 8
4.2048178 34.312965 -11.679688 0 9
4.1363111 33.753922 -10.614281 0 10
4.0488582 33.040272 -9.5456085 0 11
3.9544666 32.27 -8.5094328 0 12
3.8625536 31.519955 -7.5265484 0 13
3.7943401 30.963306 -6.6308556 0 14
3.7551165 30.643227 -5.8148561 0 15
3.741014 30.528145 -5.0548739 0 16
3.7422667 30.538366 -4.3238029 0 17
3.7612793 30.693518 -3.6140869 0 18
3.762409 30.702734 -2.8872411 0 19
3.7101679 30.276426 -2.1324408 0 20
3.7603595 30.68601 -1.439263 0 21
4.042316 32.986885 0.00094876683 0 23
3.9979053 32.624477 0.76608557 0 24
4.24193 34.615814 1.6255778 0 25
3.8934541 31.772116 3.7429419 0 28
3.8701575 31.582005 5.2312384 0 30
3.7980917 30.993919 5.8832502 0 31
3.28227 35.098465 -11.910096 0 9
3.2258906 34.495583 -10.813939 0 10
3.1656933 33.851871 -9.7498245 0 11
3.0973835 33.12141 -8.7069206 0 12
3.0232418 32.328587 -7.6957531 0 13
2.9516182 31.562689 -6.7383003 0 14
2.8952672 30.96011 -5.8568101 0 15
2.8665628 30.653164 -5.0598698 0 16
2.8553491 30.533251 -4.3097024 0 17
2.8350544 30.316233 -3.5586174 0 18
2.7855608 29.786982 -2.7924581 0 19
2.790442 29.839176 -2.0951414 0 20
2.8033478 29.977182 -1.4016664 0 21
2.7851372 29.78245 -0.69547653 0 22
2.733952 29.235109 0.00083825673 0 23
2.7224128 29.111717 0.68148392 0 24
2.7443922 29.346748 1.3738753 0 25
2.8076649 30.023348 2.109803 0 26
2.8587046 30.569132 2.8675508 0 27
2.8301053 30.263311 3.5541646 0 28
2.8124568 30.074589 4.2467217 0 29
2.8746884 30.740053 5.0760226 0 30
2.858592 30.56793 5.7844353 0 31
2.2769375 35.222519 -11.016804 0 10
2.2350206 34.574097 -9.9352732 0 11
2.1923959 33.914722 -8.8952637 0 12
2.1502547 33.262833 -7.9002056 0 13
2.1113582 32.661133 -6.9570065 0 14
2.0816295 32.201252 -6.0777969 0 15
2.0394418 31.548637 -5.1958838 0 16
1.9890594 30.769262 -4.3331738 0 17
1.9319515 29.885845 -3.5001481 0 18
1.9242803 29.767176 -2.7842779 0 19
1.9217497 29.728029 -2.0826075 0 20
1.8771058 29.037422 -1.3546488 0 21
1.8330224 28.355484 -0.66065377 0 22
1.8112415 28.018551 0.00080155401 0 23
1.8067157 27.94854 0.65277231 0 24
1.8137455 28.057285 1.3105325 0 25
1.836956 28.416334 1.99235 0 26
1.8922833 29.272207 2.7396703 0 27
1.9293975 29.846334 3.4972515 0 28
1.926061 29.794724 4.1976695 0 29
1.9266627 29.804031 4.9103084 0 30
1.9766393 30.577129 5.7730651 0 31
1.4042308 39.137291 -23.225225 0 0
1.403896 39.12796 -22.004457 0 1
1.4035994 39.119694 -20.816216 0 2
1.4036937 39.122322 -19.662888 0 3
1.4034153 39.114563 -18.531179 0 4
1.4037849 39.124863 -17.432547 0 5
1.4033449 39.112598 -16.346554 0 6
1.4033357 39.112343 -15.286733 0 7
1.4038181 39.12579 -14.251014 0 8
1.4035616 39.118641 -13.225117 0 9
1.4033288 39.112152 -12.215768 0 10
1.4028704 39.099377 -11.219477 0 11
1.2380455 34.505543 -9.0371866 0 12
1.2123957 33.790657 -8.0140057 0 13
1.1934046 33.261356 -7.0746498 0 14
1.4031134 39.106148 -7.3704209 0 15
1.402775 39.096722 -6.4297333 0 16
1.1057179 30.817446 -4.3337064 0 17
1.0875914 30.312243 -3.5449715 0 18
1.0771683 30.021742 -2.8040428 0 19
1.0473521 29.190731 -2.0420203 0 20
1.0125885 28.221834 -1.3147032 0 21
0.99594283 27.757904 -0.64579892 0 22
0.98619115 27.486116 0.00078518922 0 23
0.98402631 27.425779 0.63963974 0 24
0.98730451 27.517147 1.2834511 0 25
0.99738222 27.798023 1.9461904 0 26
1.0174689 28.357859 2.6502697 0 27
1.0613668 29.581335 3.4612062 0 28
1.0689534 29.792782 4.1913486 0 29
1.0735056 29.919655 4.9222555 0 30
1.1042144 30.775541 5.8021541 0 31
0.27493054 38.323029 -22.727978 0 0
0.27508646 38.344761 -21.550695 0 1
0.27500281 38.333103 -20.385065 0 2
0.27497768 38.329597 -19.252571 0 3
0.27504826 38.339439 -18.152737 0 4
0.27510786 38.347744 -17.075745 0 5
0.2751556 38.354397 -16.019779 0 6
0.27508497 38.344551 -14.977396 0 7
0.27513081 38.350945 -13.960164 0 8
0.27519318 38.359638 -12.96051 0 9
0.27511317 38.348484 -11.96986 0 10
0.27517235 38.356735 -10.999582 0 11
0.27526617 38.369812 -10.043056 0 12
0.27520901 38.361843 -9.0925207 0 13
0.27520487 38.361267 -8.1543579 0 14
0.27533138 38.378902 -7.2288899 0 15
0.27511004 38.348045 -6.3027153 0 16
0.27130383 37.817493 -5.3148055 0 17
0.27116978 37.798809 -4.4177852 0 18
0.21791039 30.374893 -2.8352759 0 19
0.20639618 28.769909 -2.0113397 0 20
0.20045857 27.942257 -1.3008755 0 21
0.19725455 27.495642 -0.63930237 0 22
0.19597711 27.317575 0.00077989284 0 23
0.19549315 27.250116 0.63515049 0 24
0.19593464 27.311655 1.2730802 0 25
0.197589 27.542261 1.9270935 0 26
0.20118119 28.042982 2.6192241 0 27
0.20828182 29.032749 3.3949211 0 28
0.2157909 30.079454 4.2290664 0 29
0.21789278 30.372438 4.9936609 0 30
-0.82503414 38.338493 -22.741827 0 0
-0.82486653 38.330704 -21.547228 0 1
-0.82504267 38.338886 -20.392336 0 2
-0.82546508 38.358517 -19.271063 0 3
-0.82542843 38.356815 -18.164701 0 4
-0.82532835 38.352165 -17.081226 0 5
-0.82542205 38.356518 -16.02396 0 6
-0.82554573 38.362263 -14.987398 0 7
-0.8253504 38.353188 -13.963854 0 8
-0.82583201 38.375568 -12.96856 0 9
-0.82585061 38.376431 -11.981048 0 10
-0.8256973 38.369308 -11.005452 0 11
-0.82604223 38.385338 -10.049187 0 12
-0.82649207 38.406239 -9.1049166 0 13
-0.82638788 38.401398 -8.1645679 0 14
-0.82594484 38.38081 -7.2307372 0 15
-0.82628673 38.396698 -6.3120103 0 16
-0.81407022 37.82901 -5.3175182 0 17
-0.8142727 37.838421 -4.4233251 0 18
-0.65538603 30.455118 -2.8433492 0 19
-0.61941522 28.783592 -2.0127103 0 20
-0.60216248 27.981874 -1.3029881 0 21
-0.59261447 27.538189 -0.64042342 0 22
-0.58787209 27.317814 0.00078006007 0 23
-0.58650529 27.254301 0.63537872 0 24
-0.5875057 27.300789 1.2728355 0 25
-0.59309781 27.560648 1.928777 0 26
-0.60419154 28.07616 2.6228626 0 27
-0.62648511 29.112122 3.4049029 0 28
-0.66654098 30.973476 4.355659 0 29
-1.9659728 39.124645 -23.232065 0 0
-1.9665815 39.136761 -22.023003 0 1
-1.9667897 39.140903 -20.840368 0 2
-1.9669306 39.143707 -19.685791 0 3
-1.9678279 39.161564 -18.564909 0 4
-1.9687269 39.179455 -17.467655 0 5
-1.9680897 39.166775 -16.379307 0 6
-1.9697014 39.198849 -15.330009 0 7
-1.970083 39.206444 -14.289213 0 8
-1.9703568 39.211891 -13.264833 0 9
-1.9705976 39.216686 -12.255983 0 10
-1.9715282 39.235203 -11.265408 0 11
-1.9709532 39.223763 -10.27926 0 12
-1.9714279 39.233208 -9.310544 0 13
-1.9721991 39.248554 -8.3532772 0 14
-1.97235 39.25156 -7.4023972 0 15
-1.9727336 39.259193 -6.4604421 0 16
-1.9296806 38.402397 -5.4036775 0 17
-1.9297776 38.404327 -4.4941034 0 18
-1.5797781 31.43902 -2.9382315 0 19
-1.4750693 29.355221 -2.054796 0 20
-1.423422 28.327391 -1.3204358 0 21
-1.3984189 27.829807 -0.64787179 0 22
-1.3858927 27.580524 0.00078837294 0 23
-1.3823736 27.51049 0.64201182 0 24
-1.3860821 27.584293 1.2873778 0 25
-1.4006202 27.873615 1.9526883 0 26
-1.4309698 28.4776 2.6631048 0 27
-1.4958993 29.769756 3.4854047 0 28
-2.4311254 30.749931 -2.1564181 0 20
-2.3156528 29.289385 -1.3678122 0 21
-2.2542837 28.513161 -0.66501242 0 22
-2.2271981 28.170568 0.00080673385 0 23
-2.2207227 28.088667 0.65672159 0 24
-2.2304022 28.211096 1.3190753 0 25
-2.264127 28.637663 2.0099382 0 26
-2.3379138 29.57095 2.770484 0 27
-2.5219259 31.898417 3.7415586 0 28
-3.2852397 30.417643 -1.4243182 0 21
-3.23107 29.916094 -0.69960761 0 22
-3.2017465 29.64459 0.00085122697 0 23
-3.1847401 29.487129 0.69127029 0 24
-3.2139025 29.757141 1.3951025 0 25
-3.3030565 30.582607 2.1522112 0 26
-3.7211814 34.453976 3.2366445 0 27
-4.1728191 30.430182 -1.429924 0 21
-4.1088872 29.963961 -0.7031951 0 22
-4.0811214 29.761478 0.00085759332 0 23
-4.0898304 29.824989 0.70165348 0 24
-4.1296129 30.115105 1.4168577 0 25
-4.2357526 30.889124 2.1814384 0 26
-5.0901251 30.574812 -0.720662 0 22
-5.0530705 30.352238 0.00087843335 0 23
-5.0628572 30.411022 0.7185626 0 24
-5.1422853 30.888124 1.4595691 0 25
-6.0459123 30.828218 -0.73042387 0 22
-5.9855757 30.520563 0.00088791078 0 23
-5.9982276 30.585073 0.72644347 0 24
-6.0962915 31.085104 1.4765362 0 25
-6.9878435 30.907789 -0.73675722 0 22
-6.9152937 30.586893 0.00089524547 0 23
-6.9264779 30.636364 0.73208153 0 24
-7.0395098 31.136312 1.487952 0 25
-7.3177996 32.36721 2.3217876 0 26
-7.501698 33.180607 3.1772165 0 27
-7.6593447 33.877892 4.0613637 0 28
-7.9482112 30.993349 -0.74392772 0 22
-7.8742361 30.704891 0.00090494059 0 23
-7.9086781 30.839193 0.7420463 0 24
-8.0465879 31.376963 1.509866 0 25
-8.3451815 32.541302 2.3504872 0 26
-8.6039124 33.550198 3.2349184 0 27
-8.8011951 34.319485 4.1428766 0 28
-8.9230785 31.06259 -0.75142688 0 22
-8.8622828 30.850952 0.00091636379 0 23
-8.9395466 31.119917 0.75466341 0 24
-9.1416883 31.823603 1.5433474 0 25
-9.4410715 32.865803 2.3925116 0 26
-9.7524405 33.949722 3.2990682 0 27
-9.9886684 34.772068 4.2303729 0 28
-9.9051895 31.091118 -0.75868112 0 22
-9.8856544 31.0298 0.00092972006 0 23
-10.035857 31.501265 0.77057821 0 24
-10.275799 32.254414 1.5778923 0 25
-10.591529 33.245449 2.4412704 0 26
-10.914056 34.25782 3.3580616 0 27
-11.196636 35.144802 4.313036 0 28
-10.901928 31.104954 -0.76633769 0 22
-10.95622 31.259857 0.00094564451 0 23
-11.179758 31.897646 0.78779835 0 24
-11.460174 32.69772 1.6150031 0 25
-11.776943 33.601513 2.4912093 0 26
-12.09858 34.519196 3.4163103 0 27
-12.432542 35.472042 4.3951721 0 28
-11.935254 31.159336 -0.77579689 0 22
-12.046073 31.44865 0.00096141774 0 23
-12.31656 32.154808 0.80254894 0 24
-12.630956 32.975601 1.6459546 0 25
-12.957313 33.827621 2.5344985 0 26
-13.284844 34.682705 3.4687965 0 27
-13.671118 35.691151 4.4690933 0 28
-13.005824 31.240421 -0.78678471 0 22
-13.1702 31.63526 0.0009782745 0 23
-13.45662 32.323246 0.81605572 0 24
-13.787816 33.118793 1.6721637 0 25
-14.117605 33.910957 2.5700397 0 26
-14.466944 34.75008 3.5156109 0 27
-14.11884 31.347807 -0.79936463 0 22
-14.305353 31.761917 0.00099447707 0 23
-14.605471 32.428265 0.8289479 0 24
-14.941621 33.174614 1.6959338 0 25
-15.28849 33.944759 2.6047812 0 26
-15.654156 34.756641 3.5602586 0 27
-15.268508 31.457787 -0.81300783 0 22
-15.466488 31.865685 0.0010112071 0 23
-15.771255 32.493599 0.84184122 0 24
-16.112358 33.196373 1.7199764 0 25
-16.474031 33.941532 2.6397254 0 26
-16.869808 34.75695 3.6083965 0 27
-16.46475 31.58252 -0.82810229 0 22
-16.652407 31.942482 0.0010283859 0 23
-16.97439 32.560104 0.85583252 0 24
-17.312853 33.209343 1.7456725 0 25
-17.674093 33.902271 2.6750181 0 26
-18.12059 34.758736 3.6610627 0 27
-17.6901 31.68129 -0.84365606 0 22
-17.885752 32.031685 0.001047352 0 23
-18.195223 32.585915 0.86987793 0 24
-18.535099 33.194603 1.7721291 0 25
-18.913862 33.872932 2.7144141 0 26
-19.421144 34.781425 3.7206254 0 27
-18.973028 31.800016 -0.86096275 0 22
-19.157629 32.109417 0.0010674308 0 23
-19.46554 32.625496 0.88548237 0 24
-19.813059 33.207962 1.8024554 0 25
-20.197472 33.852261 2.7580709 0 26
-20.285482 31.883995 -0.87863612 0 22
-20.474354 32.180855 0.0010888905 0 23
-20.780556 32.662132 0.90229112 0 24
-21.120811 33.196934 1.8340012 0 25
-21.545103 33.863823 2.8082325 0 26
-21.651382 31.967558 -0.8976922 0 22
-21.83238 32.234795 0.0011114584 0 23
-22.14156 32.691288 0.92027116 0 24
-22.501904 33.223324 1.8703649 0 25
-22.944771 33.877205 2.8627689 0 26
-23.072878 32.046333 -0.91812038 0 22
-23.266768 32.315632 0.0011368004 0 23
-23.578987 32.749279 0.94056499 0 24
-23.946217 33.259331 1.9102933 0 25
-24.448465 33.956913 2.9275899 0 26
-24.553596 32.11808 -0.93997681 0 22
-24.742941 32.365757 0.001163064 0 23
-25.065313 32.787445 0.96192437 0 24
-25.452238 33.293575 1.9534094 0 25
-26.111259 32.197598 -0.9638378 0 22
-26.305964 32.437687 0.0011922865 0 23
-26.63212 32.839867 0.98547959 0 24
-27.03689 33.338985 2.0007744 0 25
-27.737774 32.265423 -0.98928988 0 22
-27.930964 32.490147 0.0012231737 0 23
-28.269674 32.884144 1.0107379 0 24
-28.692032 33.375443 2.051533 0 25
-29.450891 32.333607 -1.0168761 0 22
-29.631601 32.532005 0.0012562468 0 23
-29.978054 32.912369 1.0376211 0 24
-30.396162 33.371403 2.104038 0 25
-31.246674 32.387985 -1.0463569 0 22
-31.410025 32.557301 0.0012915006 0 23
-31.751238 32.91098 1.0658658 0 24
-33.16946 32.463428 -1.0791031 0 22
-33.272137 32.563919 0.0013290935 0 23
-33.609959 32.89455 1.0961205 0 24
-35.29287 32.612789 -1.1172755 0 22
-35.223064 32.548286 0.001369149 0 23
-35.536541 32.837955 1.1277535 0 24
-37.30463 32.538326 0.001413182 0 23
-37.583755 32.781788 1.1623878 0 24
-39.496845 32.503353 0.0014602909 0 23
-41.827866 32.454769 0.0015114159 0 23
-44.312485 32.389698 0.0015669629 0 23
-46.970581 32.306942 0.001627502 0 23
