# .PCD v0.7 - Point Cloud Data file format
VERSION 0.7
FIELDS x y z intensity ring
SIZE 4 4 4 4 2
TYPE F F F F U
COUNT 1 1 1 1 1
WIDTH 67
HEIGHT 1
VIEWPOINT 0 0 0 1 0 0 0
POINTS 67
DATA ascii
22.296452 12.240911 2.3756361 0 27
22.304995 12.245601 2.9753587 0 28
21.055824 12.35878 -0.56765723 0 22
21.012255 12.333207 0.00069556368 0 23
20.993172 12.322006 0.56735879 0 24
20.949995 12.296663 1.1323042 0 25
20.960024 12.30255 1.7004602 0 26
21.156599 12.41793 2.2912147 0 27
20.009851 12.530154 -3.3179247 0 17
19.87949 12.448522 -2.7413201 0 18
19.817039 12.409416 -2.1824656 0 19
19.750252 12.367592 -1.6290994 0 20
19.683359 12.325705 -1.0811887 0 21
19.66921 12.316844 -0.53958195 0 22
19.812147 12.406352 0.00066734792 0 23
20.087036 12.578486 0.55239803 0 24
18.874264 12.586904 -5.376965 0 13
18.77043 12.517659 -4.7957153 0 14
18.681517 12.458364 -4.2293491 0 15
18.581999 12.391997 -3.6707876 0 16
18.500547 12.337679 -3.1250834 0 17
18.488638 12.329737 -2.5972502 0 18
18.593267 12.399513 -2.0860209 0 19
18.814899 12.547315 -1.5809976 0 20
17.89925 12.693289 -7.413713 0 9
17.772142 12.60315 -6.8003931 0 10
17.628378 12.5012 -6.1972685 0 11
17.509943 12.417212 -5.6184211 0 12
17.419512 12.353081 -5.0614405 0 13
17.385265 12.328795 -4.5303469 0 14
17.478771 12.395105 -4.0359273 0 15
17.659054 12.522953 -3.5579944 0 16
17.918085 12.706646 -3.0870211 0 17
17.021221 12.820016 -9.4883862 0 5
16.820873 12.669118 -8.7953205 0 6
16.657318 12.545933 -8.1451588 0 7
16.509314 12.434459 -7.5232463 0 8
16.414165 12.362795 -6.9426966 0 9
16.35858 12.32093 -6.3921695 0 10
16.433371 12.37726 -5.8996062 0 11
16.576059 12.48473 -5.4314933 0 12
16.778114 12.636913 -4.9783998 0 13
16.326822 13.047582 -11.745936 0 1
16.005096 12.790474 -10.894998 0 2
15.793997 12.621775 -10.154938 0 3
15.622038 12.484354 -9.4681425 0 4
15.495826 12.383492 -8.8325329 0 5
15.405805 12.311551 -8.2367611 0 6
15.444274 12.342294 -7.7220192 0 7
15.552933 12.429128 -7.2469869 0 8
15.732778 12.572851 -6.8043036 0 9
15.924484 12.726053 -6.3626342 0 10
14.8083 12.546777 -11.510438 0 0
14.642274 12.406105 -10.785728 0 1
14.524196 12.30606 -10.123155 0 2
14.498199 12.284034 -9.5445223 0 3
14.576342 12.350243 -9.0454588 0 4
14.728131 12.478851 -8.59554 0 5
14.908082 12.631319 -8.1611013 0 6
15.135722 12.824194 -7.7485681 0 7
13.653802 12.258503 -10.882021 0 0
13.759154 12.353089 -10.392068 0 1
13.911641 12.489993 -9.9419479 0 2
14.08804 12.648366 -9.509552 0 3
14.344572 12.878682 -9.1272287 0 4
13.299243 12.647716 -10.884241 0 0
13.528995 12.866212 -10.49279 0 1
