# .PCD v0.7 - Point Cloud Data file format
VERSION 0.7
FIELDS x y z intensity ring
SIZE 4 4 4 4 2
TYPE F F F F U
COUNT 1 1 1 1 1
WIDTH 67
HEIGHT 1
VIEWPOINT 0 0 0 1 0 0 0
POINTS 67
DATA ascii
22.306339 12.246339 2.3766894 0 27
22.315859 12.251565 2.9768081 0 28
21.062468 12.362679 -0.56783634 0 22
21.007296 12.330297 0.00069539947 0 23
20.979395 12.31392 0.56698644 0 24
20.95253 12.298151 1.1324413 0 25
20.950094 12.296721 1.6996545 0 26
21.159649 12.419721 2.2915449 0 27
20.003334 12.526073 -3.316844 0 17
19.868332 12.441535 -2.7397814 0 18
19.812328 12.406466 -2.1819465 0 19
19.739498 12.360859 -1.6282123 0 20
19.680252 12.323759 -1.0810181 0 21
19.668039 12.316111 -0.53954983 0 22
19.810278 12.405181 0.00066728494 0 23
20.10256 12.588207 0.55282491 0 24
18.882244 12.592225 -5.3792386 0 13
18.771313 12.518248 -4.7959409 0 14
18.68988 12.463942 -4.2312427 0 15
18.60273 12.405823 -3.6748831 0 16
18.499292 12.336843 -3.1248713 0 17
18.477514 12.322319 -2.5956876 0 18
18.599361 12.403576 -2.0867045 0 19
18.826689 12.555177 -1.5819882 0 20
17.898766 12.692945 -7.4135122 0 9
17.763569 12.597071 -6.7971125 0 10
17.631477 12.503397 -6.1983576 0 11
17.503901 12.412927 -5.6164823 0 12
17.410498 12.346689 -5.0588217 0 13
17.387302 12.33024 -4.5308781 0 14
17.471643 12.390051 -4.0342817 0 15
17.670254 12.530895 -3.560251 0 16
17.91942 12.707593 -3.0872512 0 17
17.006535 12.808955 -9.4801989 0 5
16.809914 12.660865 -8.7895899 0 6
16.655878 12.544847 -8.144454 0 7
16.520103 12.442585 -7.5281634 0 8
16.400871 12.352782 -6.9370737 0 9
16.365368 12.326042 -6.3948221 0 10
16.42437 12.370481 -5.8963747 0 11
16.597967 12.501231 -5.4386725 0 12
16.774452 12.634155 -4.9773135 0 13
16.322554 13.044171 -11.742866 0 1
15.994888 12.782317 -10.888049 0 2
15.793932 12.621722 -10.154896 0 3
15.615122 12.478827 -9.4639511 0 4
15.478658 12.369772 -8.8227482 0 5
15.41312 12.317397 -8.2406721 0 6
15.41847 12.321672 -7.7091174 0 7
15.554469 12.430356 -7.2477031 0 8
15.732861 12.572917 -6.8043394 0 9
15.94164 12.739764 -6.3694887 0 10
14.812887 12.550663 -11.514003 0 0
14.635877 12.400685 -10.781015 0 1
14.542278 12.321381 -10.135758 0 2
14.505232 12.289992 -9.5491524 0 3
14.587678 12.359848 -9.0524931 0 4
14.724093 12.47543 -8.5931835 0 5
14.903479 12.627419 -8.1585817 0 6
15.140907 12.828588 -7.7512226 0 7
13.661816 12.265697 -10.888407 0 0
13.760092 12.35393 -10.392776 0 1
13.926848 12.503647 -9.952816 0 2
14.089646 12.649808 -9.5106363 0 3
14.355794 12.888758 -9.1343689 0 4
13.285748 12.634882 -10.873197 0 0
13.529413 12.866611 -10.493115 0 1
