# .PCD v0.7 - Point Cloud Data file format
VERSION 0.7
FIELDS x y z intensity ring
SIZE 4 4 4 4 2
TYPE F F F F U
COUNT 1 1 1 1 1
WIDTH 67
HEIGHT 1
VIEWPOINT 0 0 0 1 0 0 0
POINTS 67
DATA ascii
22.291735 12.23832 2.3751333 0 27
22.318254 12.25288 2.9771273 0 28
21.046875 12.353527 -0.56741595 0 22
21.015116 12.334887 0.00069565838 0 23
20.976381 12.312151 0.56690496 0 24
20.949892 12.296603 1.1322987 0 25
20.967659 12.307032 1.7010796 0 26
21.158325 12.418943 2.2914016 0 27
20.007311 12.528563 -3.3175035 0 17
19.874228 12.445227 -2.7405944 0 18
19.81539 12.408382 -2.1822836 0 19
19.734362 12.357642 -1.6277887 0 20
19.688328 12.328815 -1.0814617 0 21
19.685196 12.326855 -0.54002047 0 22
19.825165 12.414503 0.0006677864 0 23
20.104118 12.589184 0.55286783 0 24
18.872675 12.585845 -5.3765125 0 13
18.780586 12.524431 -4.7983098 0 14
18.673273 12.452867 -4.2274828 0 15
18.576176 12.388114 -3.6696372 0 16
18.502127 12.338733 -3.1253502 0 17
18.483822 12.326526 -2.5965736 0 18
18.596682 12.40179 -2.0864041 0 19
18.828697 12.556517 -1.582157 0 20
17.894051 12.689602 -7.4115596 0 9
17.75057 12.587852 -6.7921386 0 10
17.627359 12.500477 -6.1969099 0 11
17.507364 12.415382 -5.6175938 0 12
17.41614 12.35069 -5.060461 0 13
17.384657 12.328363 -4.5301886 0 14
17.477983 12.394547 -4.0357451 0 15
17.660618 12.524062 -3.5583096 0 16
17.907415 12.699079 -3.0851829 0 17
16.99791 12.802459 -9.4753914 0 5
16.817629 12.666676 -8.7936239 0 6
16.66136 12.548977 -8.1471348 0 7
16.512857 12.437128 -7.5248618 0 8
16.403688 12.354905 -6.9382653 0 9
16.370054 12.329572 -6.3966527 0 10
16.418503 12.366061 -5.8942685 0 11
16.580477 12.488056 -5.432941 0 12
16.790453 12.646207 -4.9820614 0 13
16.318579 13.040994 -11.740005 0 1
16.000002 12.786403 -10.891529 0 2
15.782437 12.612536 -10.147506 0 3
15.60722 12.472511 -9.4591618 0 4
15.477781 12.369071 -8.8222475 0 5
15.39483 12.30278 -8.2308931 0 6
15.423825 12.325952 -7.7117949 0 7
15.551991 12.428375 -7.2465482 0 8
15.7303 12.570871 -6.8032322 0 9
15.937525 12.736475 -6.3678446 0 10
14.800139 12.539862 -11.504094 0 0
14.637406 12.401981 -10.782143 0 1
14.534748 12.315001 -10.13051 0 2
14.494286 12.280718 -9.5419464 0 3
14.567992 12.343168 -9.0402765 0 4
14.719876 12.471856 -8.5907221 0 5
14.891971 12.617668 -8.1522808 0 6
15.143459 12.83075 -7.7525291 0 7
13.656608 12.261022 -10.884257 0 0
13.76175 12.35542 -10.394029 0 1
13.920688 12.498115 -9.9484129 0 2
14.089656 12.649816 -9.5106421 0 3
14.347633 12.881431 -9.1291761 0 4
13.29085 12.639733 -10.877372 0 0
13.536999 12.873824 -10.498999 0 1
