# .PCD v0.7 - Point Cloud Data file format
VERSION 0.7
FIELDS x y z intensity ring
SIZE 4 4 4 4 2
TYPE F F F F U
COUNT 1 1 1 1 1
WIDTH 67
HEIGHT 1
VIEWPOINT 0 0 0 1 0 0 0
POINTS 67
DATA ascii
22.295786 12.240544 2.3755651 0 27
22.312578 12.249764 2.9763703 0 28
21.047676 12.353997 -0.56743753 0 22
21.007387 12.33035 0.00069540256 0 23
20.970108 12.308468 0.56673545 0 24
20.952753 12.298282 1.1324533 0 25
20.977232 12.312651 1.7018563 0 26
21.158524 12.41906 2.2914231 0 27
19.986662 12.515634 -3.3140798 0 17
19.86594 12.440037 -2.7394516 0 18
19.817869 12.409934 -2.1825566 0 19
19.741714 12.362247 -1.6283951 0 20
19.687815 12.328495 -1.0814335 0 21
19.666895 12.315395 -0.53951842 0 22
19.826462 12.415316 0.00066783011 0 23
20.110399 12.593117 0.55304056 0 24
18.884527 12.593748 -5.379889 0 13
18.769617 12.517117 -4.7955074 0 14
18.675001 12.454019 -4.2278743 0 15
18.568789 12.383188 -3.6681783 0 16
18.501928 12.338599 -3.1253164 0 17
18.49365 12.333079 -2.5979543 0 18
18.606735 12.408494 -2.0875318 0 19
18.829369 12.556964 -1.5822134 0 20
17.885714 12.683689 -7.4081063 0 9
17.757017 12.592424 -6.7946057 0 10
17.632687 12.504254 -6.1987829 0 11
17.503017 12.4123 -5.616199 0 12
17.40966 12.346095 -5.0585785 0 13
17.371023 12.318696 -4.5266361 0 14
17.476137 12.393237 -4.0353189 0 15
17.679407 12.537386 -3.5620952 0 16
17.910088 12.700974 -3.0856431 0 17
16.996611 12.80148 -9.4746666 0 5
16.80838 12.659708 -8.7887878 0 6
16.661678 12.549216 -8.1472902 0 7
16.514597 12.438437 -7.5256538 0 8
16.419359 12.366706 -6.9448929 0 9
16.338388 12.30572 -6.3842793 0 10
16.417442 12.365262 -5.8938875 0 11
16.586319 12.492458 -5.4348559 0 12
16.785973 12.642832 -4.9807315 0 13
16.289068 13.01741 -11.718775 0 1
15.995634 12.782913 -10.888556 0 2
15.772568 12.60465 -10.14116 0 3
15.600309 12.466989 -9.4549732 0 4
15.473636 12.365758 -8.8198853 0 5
15.407819 12.313161 -8.2378378 0 6
15.430501 12.331287 -7.7151327 0 7
15.556614 12.43207 -7.2487025 0 8
15.731895 12.572146 -6.8039227 0 9
15.944331 12.741914 -6.370564 0 10
14.812781 12.550572 -11.513921 0 0
14.638365 12.402794 -10.782848 0 1
14.525461 12.307133 -10.124037 0 2
14.502601 12.287763 -9.5474205 0 3
14.576832 12.350657 -9.0457621 0 4
14.731507 12.48171 -8.5975094 0 5
14.90206 12.626216 -8.1578045 0 6
15.143193 12.830524 -7.7523928 0 7
13.662124 12.265974 -10.888653 0 0
13.753263 12.3478 -10.387619 0 1
13.921846 12.499155 -9.9492407 0 2
14.092283 12.652175 -9.5124159 0 3
14.354373 12.887482 -9.1334648 0 4
13.300243 12.648667 -10.885059 0 0
13.537477 12.874279 -10.49937 0 1
