# .PCD v0.7 - Point Cloud Data file format
VERSION 0.7
FIELDS x y z intensity ring
SIZE 4 4 4 4 2
TYPE F F F F U
COUNT 1 1 1 1 1
WIDTH 217
HEIGHT 1
VIEWPOINT 0 0 0 1 0 0 0
POINTS 217
DATA ascii
-43.170666 24.513557 -1.1542672 0 22
-41.89032 23.786539 0.0013752497 0 23
-41.599522 23.621416 1.1149919 0 24
-41.85067 23.764025 2.2432892 0 25
-43.152702 24.503359 3.4720533 0 26
-41.839661 22.195362 -1.1011956 0 22
-41.178757 21.844763 0.0013307602 0 23
-40.981422 21.74008 1.0812575 0 24
-41.114357 21.8106 2.1693773 0 25
-41.710934 22.127075 3.3035963 0 26
-43.94994 21.722845 -29.074348 0 0
-43.877205 21.686895 -27.507109 0 1
-43.822727 21.659967 -25.994905 0 2
-43.768539 21.633184 -24.522642 0 3
-43.711304 21.604895 -23.085583 0 4
-43.666706 21.582853 -21.689074 0 5
-43.611286 21.55546 -20.318466 0 6
-43.585957 21.54294 -18.990217 0 7
-43.547401 21.523884 -17.681839 0 8
-43.516838 21.508778 -16.400444 0 9
-43.472565 21.486895 -15.135851 0 10
-43.438934 21.470272 -13.895188 0 11
-43.389465 21.445822 -12.668092 0 12
-43.38092 21.441599 -11.469231 0 13
-43.330563 21.416708 -10.274054 0 14
-43.316441 21.409729 -9.1008625 0 15
-43.279007 21.391226 -7.93437 0 16
-43.268902 21.386232 -6.7829909 0 17
-43.237617 21.37077 -5.6368823 0 18
-42.485222 20.998888 -4.423532 0 19
-42.471752 20.992229 -3.312057 0 20
-42.50481 21.00857 -2.2073088 0 21
-41.332283 20.429031 -1.0719699 0 22
-40.794186 20.163071 0.0012990974 0 23
-40.614563 20.074289 1.0559437 0 24
-40.721474 20.127132 2.1172979 0 25
-41.180325 20.353926 3.213984 0 26
-42.286495 20.900665 4.4055576 0 27
-43.282562 19.869022 -28.244019 0 0
-43.259777 19.858562 -26.751743 0 1
-43.258678 19.858057 -25.31185 0 2
-43.235558 19.847443 -23.895058 0 3
-43.213886 19.837496 -22.512941 0 4
-43.211773 19.836525 -21.171637 0 5
-43.187931 19.825581 -19.847977 0 6
-43.185356 19.824398 -18.56016 0 7
-43.160332 19.81291 -17.286688 0 8
-43.146954 19.80677 -16.040216 0 9
-43.151844 19.809015 -14.820155 0 10
-43.116669 19.792868 -13.604804 0 11
-43.116665 19.792866 -12.417491 0 12
-43.104771 19.787405 -11.241459 0 13
-43.092644 19.781839 -10.078885 0 14
-43.098305 19.784437 -8.9320631 0 15
-43.06831 19.770668 -7.788518 0 16
-43.05489 19.764507 -6.6577835 0 17
-43.051765 19.763075 -5.5364327 0 18
-42.552902 19.534067 -4.3704109 0 19
-42.553673 19.534422 -3.2733805 0 20
-41.981003 19.271536 -2.1505008 0 21
-41.006832 18.824339 -1.0490863 0 22
-40.554543 18.616714 0.0012739277 0 23
-40.39603 18.543947 1.0359993 0 24
-40.459381 18.57303 2.0751023 0 25
-40.845585 18.750319 3.144567 0 26
-41.692299 19.139004 4.2846646 0 27
-30.516907 12.962354 -19.662952 0 0
-43.919697 18.655319 -26.81772 0 1
-43.927467 18.658619 -25.379412 0 2
-43.926384 18.658159 -23.97106 0 3
-43.919487 18.65523 -22.592321 0 4
-43.912865 18.652418 -21.244127 0 5
-43.917854 18.654537 -19.929193 0 6
-43.90749 18.650133 -18.632816 0 7
-43.910072 18.65123 -17.365442 0 8
-43.896568 18.645496 -16.113335 0 9
-43.908623 18.650616 -14.890112 0 10
-43.885445 18.64077 -13.672954 0 11
-43.891434 18.643312 -12.481397 0 12
-43.903301 18.648355 -11.305487 0 13
-43.893238 18.644081 -10.136819 0 14
-43.894981 18.644821 -8.9825821 0 15
-43.888031 18.641869 -7.8367829 0 16
-43.892113 18.643602 -6.7017522 0 17
-43.891079 18.643164 -5.5732689 0 18
-43.323864 18.402233 -4.3935442 0 19
-43.307888 18.395449 -3.2894342 0 20
-41.78878 17.750193 -2.1136897 0 21
-40.948502 17.393274 -1.0343982 0 22
-40.527153 17.214302 0.0012570313 0 23
-40.37775 17.150843 1.0224867 0 24
-40.4538 17.183146 2.048681 0 25
-40.798038 17.329365 3.1013427 0 26
-41.501942 17.628353 4.2113771 0 27
-43.45055 18.456045 5.5200634 0 28
-36.337112 15.434542 7.4382887 0 31
-30.695118 12.010747 -19.54764 0 0
-31.002644 12.131079 -18.710182 0 1
-31.386908 12.281438 -17.923 0 2
-31.787216 12.438076 -17.144745 0 3
-32.270363 12.627128 -16.406815 0 4
-32.862259 12.85873 -15.713078 0 5
-34.074604 13.333112 -15.282562 0 6
-35.516918 13.897478 -14.896766 0 7
-36.760864 14.384224 -14.368924 0 8
-37.90464 14.831773 -13.751941 0 9
-39.008316 15.263633 -13.07441 0 10
-40.050678 15.671501 -12.332994 0 11
-41.130131 16.093882 -11.560066 0 12
-45.47551 17.794193 -4.5580826 0 19
-44.191063 17.291599 -3.3174579 0 20
-41.766346 16.342829 -2.0879729 0 21
-40.953823 16.024895 -1.0224946 0 22
-40.547478 15.865894 0.0012430273 0 23
-40.367302 15.795392 1.0103271 0 24
-40.439899 15.8238 2.0241463 0 25
-40.76675 15.951694 3.0629036 0 26
-41.447903 16.218224 4.1569524 0 27
-43.153652 16.885668 5.4185505 0 28
-37.245243 14.573757 6.575583 0 30
-37.141209 14.533049 7.5144196 0 31
-33.078129 11.860728 -16.63759 0 4
-32.965954 11.820506 -15.594039 0 5
-33.329796 11.950968 -14.788602 0 6
-33.724747 12.092584 -13.993762 0 7
-34.184265 12.257352 -13.218855 0 8
-34.737942 12.455882 -12.468229 0 9
-35.44545 12.709573 -11.753157 0 10
-36.628391 13.133736 -11.158494 0 11
-37.789433 13.550047 -10.507507 0 12
-38.827873 13.922398 -9.7764587 0 13
-39.873165 14.297204 -9.0038996 0 14
-41.719669 14.959301 -8.3478203 0 15
-43.998962 15.776579 -3.2677023 0 20
-41.731396 14.963506 -2.0639081 0 21
-40.957844 14.686135 -1.0116557 0 22
-40.575825 14.549155 0.0012305896 0 23
-40.418919 14.492894 1.0007973 0 24
-40.488708 14.517919 2.0049098 0 25
-40.774036 14.620227 3.0306797 0 26
-41.412769 14.849256 4.1089973 0 27
-43.049038 15.435968 5.34759 0 28
-38.475201 13.79594 5.7465682 0 29
-38.180115 13.690132 6.6685243 0 30
-38.137653 13.674908 7.6334786 0 31
-35.15004 11.476806 -12.492782 0 9
-35.369057 11.548317 -11.613152 0 10
-35.741341 11.669871 -10.781797 0 11
-36.16674 11.808767 -9.9579811 0 12
-36.658157 11.96922 -9.1398954 0 13
-37.198227 12.145557 -8.3177299 0 14
-37.698765 12.308988 -7.4695067 0 15
-38.158852 12.45921 -6.5972891 0 16
-38.622307 12.610533 -5.7097702 0 17
-39.124233 12.774416 -4.8101444 0 18
-39.862091 13.015332 -3.9140501 0 19
-40.758869 13.308139 -2.9974697 0 20
-40.872154 13.345128 -2.0016475 0 21
-40.853397 13.339005 -0.99920923 0 22
-40.787651 13.317537 0.0012249185 0 23
-40.621593 13.263317 0.9959808 0 24
-40.689106 13.285361 1.9951321 0 25
-40.993095 13.384616 3.0171692 0 26
-41.509441 13.553208 4.0783181 0 27
-42.239315 13.791518 5.1957006 0 28
-41.494953 13.548477 6.136992 0 29
-39.255928 12.817415 6.7893844 0 30
-39.001598 12.734374 7.7300715 0 31
-37.602093 11.094354 -8.3334112 0 14
-37.953068 11.197907 -7.4531517 0 15
-38.336792 11.311124 -6.5692267 0 16
-38.781731 11.442403 -5.6824532 0 17
-39.187004 11.561976 -4.7751012 0 18
-39.662586 11.702295 -3.8598964 0 19
-40.14608 11.844949 -2.9262009 0 20
-40.446705 11.933646 -1.9632312 0 21
-40.428936 11.928405 -0.98005134 0 22
-41.018429 12.102332 0.001220916 0 23
-40.906166 12.069209 0.99405652 0 24
-40.957119 12.084242 1.9904495 0 25
-41.283829 12.180636 3.0115995 0 26
-40.998127 12.096342 3.9923308 0 27
-41.060631 12.114783 5.0058885 0 28
-40.631912 11.988292 5.9560161 0 29
-40.052933 11.817465 6.865746 0 30
-39.761841 11.73158 7.8108063 0 31
-40.33506 10.652961 -4.8757362 0 18
-40.515408 10.700593 -3.9113958 0 19
-40.856815 10.790763 -2.9542172 0 20
-40.661922 10.739289 -1.9579121 0 21
-40.847771 10.788374 -0.98229468 0 22
-41.34251 10.919041 0.0012207327 0 23
-41.244678 10.893202 0.9942764 0 24
-41.314598 10.911668 1.991784 0 25
-41.663872 11.003916 3.0150452 0 26
-41.341827 10.91886 3.9936421 0 27
-41.548862 10.97354 5.0249491 0 28
-41.317852 10.912528 6.0081844 0 29
-40.992546 10.826612 6.9706821 0 30
-40.928871 10.809793 7.9758339 0 31
-42.412292 9.909318 -3.0448723 0 20
-41.939957 9.7989607 -2.0050845 0 21
-42.174927 9.8538599 -1.0069948 0 22
-41.926285 9.7957668 0.0012291633 0 23
-41.704926 9.7440472 0.99821943 0 24
-41.795811 9.7652817 2.0006492 0 25
-42.204887 9.8608589 3.0324688 0 26
-42.562469 9.9444056 4.0823073 0 27
-42.342995 9.8931274 5.0845613 0 28
-43.434444 8.8423567 -1.0305846 0 22
-42.628567 8.678297 0.0012419394 0 23
-42.354744 8.6225529 1.0074354 0 24
-42.46217 8.6444225 2.0198393 0 25
-42.998653 8.7536392 3.070188 0 26
-43.990314 7.6483936 0.0012746928 0 23
-43.528397 7.5680823 1.0297616 0 24
-43.715897 7.6006818 2.0682492 0 25
