# .PCD v0.7 - Point Cloud Data file format
VERSION 0.7
FIELDS x y z intensity ring
SIZE 4 4 4 4 2
TYPE F F F F U
COUNT 1 1 1 1 1
WIDTH 217
HEIGHT 1
VIEWPOINT 0 0 0 1 0 0 0
POINTS 217
DATA ascii
-43.202934 24.531879 -1.1551299 0 22
-41.886585 23.784418 0.0013751271 0 23
-41.593273 23.617868 1.1148244 0 24
-41.843979 23.760225 2.2429307 0 25
-43.122066 24.485962 3.4695883 0 26
-41.870037 22.211477 -1.1019951 0 22
-41.188828 21.850105 0.0013310857 0 23
-40.972931 21.735575 1.0810333 0 24
-41.11705 21.812029 2.1695194 0 25
-41.697758 22.120085 3.3025525 0 26
-43.988937 21.742121 -29.100147 0 0
-43.908211 21.702219 -27.526545 0 1
-43.847767 21.672344 -26.00976 0 2
-43.795189 21.646357 -24.537575 0 3
-43.736004 21.617104 -23.098627 0 4
-43.681042 21.589939 -21.696194 0 5
-43.651073 21.575127 -20.337006 0 6
-43.589512 21.544697 -18.991766 0 7
-43.56004 21.53013 -17.68697 0 8
-43.518562 21.50963 -16.401094 0 9
-43.481136 21.491133 -15.138836 0 10
-43.446003 21.473766 -13.89745 0 11
-43.412636 21.457275 -12.674857 0 12
-43.371559 21.436972 -11.466756 0 13
-43.328335 21.415607 -10.273525 0 14
-43.321823 21.412388 -9.1019926 0 15
-43.295918 21.399584 -7.9374704 0 16
-43.273304 21.388409 -6.7836814 0 17
-43.227997 21.366014 -5.6356282 0 18
-42.495449 21.003942 -4.4245968 0 19
-42.467312 20.990036 -3.3117108 0 20
-42.506287 21.0093 -2.2073853 0 21
-41.337017 20.431374 -1.0720927 0 22
-40.802757 20.167307 0.0012993704 0 23
-40.613022 20.073528 1.0559036 0 24
-40.723289 20.128029 2.1173923 0 25
-41.173923 20.350761 3.2134845 0 26
-42.277752 20.896343 4.4046464 0 27
-43.291504 19.873125 -28.249851 0 0
-43.269512 19.863031 -26.757763 0 1
-43.264446 19.860704 -25.315226 0 2
-43.250641 19.854368 -23.903395 0 3
-43.225143 19.842663 -22.518806 0 4
-43.21434 19.837704 -21.172895 0 5
-43.196762 19.829636 -19.852036 0 6
-43.181652 19.822699 -18.558567 0 7
-43.163773 19.814491 -17.288065 0 8
-43.159073 19.812332 -16.044722 0 9
-43.144306 19.805555 -14.817567 0 10
-43.138126 19.802719 -13.611576 0 11
-43.128571 19.79833 -12.42092 0 12
-43.116657 19.792862 -11.244559 0 13
-43.106457 19.788179 -10.082115 0 14
-43.08849 19.779932 -8.9300289 0 15
-43.075031 19.773752 -7.7897329 0 16
-43.069092 19.771027 -6.6599793 0 17
-43.053852 19.76403 -5.5367007 0 18
-42.534634 19.525682 -4.3685346 0 19
-42.547798 19.531725 -3.2729287 0 20
-41.992725 19.276917 -2.1511014 0 21
-41.021183 18.830927 -1.0494535 0 22
-40.551205 18.615181 0.0012738229 0 23
-40.377987 18.535666 1.0355365 0 24
-40.460083 18.573351 2.0751383 0 25
-40.843014 18.749138 3.1443691 0 26
-41.683983 19.135189 4.2838101 0 27
-30.536188 12.970543 -19.675377 0 0
-43.934437 18.661581 -26.826719 0 1
-43.92765 18.658697 -25.379519 0 2
-43.92617 18.65807 -23.970943 0 3
-43.93174 18.660435 -22.598627 0 4
-43.916611 18.654009 -21.245937 0 5
-43.924679 18.657436 -19.932289 0 6
-43.922302 18.656425 -18.639103 0 7
-43.908436 18.650536 -17.364798 0 8
-43.898666 18.646387 -16.114105 0 9
-43.898098 18.646145 -14.886541 0 10
-43.891453 18.643322 -13.674826 0 11
-43.886185 18.641085 -12.479905 0 12
-43.898693 18.646399 -11.3043 0 13
-43.885376 18.640739 -10.135002 0 14
-43.88966 18.642561 -8.981493 0 15
-43.887096 18.641472 -7.836616 0 16
-43.878422 18.637787 -6.6996622 0 17
-43.879509 18.638248 -5.5717998 0 18
-43.321926 18.401409 -4.3933477 0 19
-43.316578 18.399139 -3.2900941 0 20
-41.792179 17.751635 -2.1138616 0 21
-40.979786 17.406563 -1.0351884 0 22
-40.541142 17.220245 0.0012574652 0 23
-40.368443 17.146889 1.0222509 0 24
-40.440472 17.177485 2.0480061 0 25
-40.766129 17.315809 3.0989168 0 26
-41.46674 17.613401 4.2078052 0 27
-43.410465 18.439018 5.5149703 0 28
-36.333221 15.432889 7.4374924 0 31
-30.704885 12.014569 -19.55386 0 0
-31.015139 12.135968 -18.717724 0 1
-31.384701 12.280575 -17.92174 0 2
-31.802217 12.443946 -17.152838 0 3
-32.275524 12.629147 -16.409439 0 4
-32.878696 12.865163 -15.720939 0 5
-34.079105 13.334874 -15.284582 0 6
-35.532509 13.903578 -14.903304 0 7
-36.762199 14.384746 -14.369446 0 8
-37.899261 14.82967 -13.74999 0 9
-39.007889 15.263466 -13.074267 0 10
-40.069016 15.678676 -12.33864 0 11
-41.170403 16.10964 -11.571385 0 12
-45.465351 17.790216 -4.5570645 0 19
-44.298782 17.333748 -3.3255446 0 20
-41.789009 16.351696 -2.0891058 0 21
-40.958797 16.02684 -1.0226187 0 22
-40.541107 15.863402 0.001242832 0 23
-40.361443 15.7931 1.0101805 0 24
-40.439457 15.823627 2.0241239 0 25
-40.772278 15.953856 3.063319 0 26
-41.44062 16.215374 4.1562223 0 27
-43.122726 16.873568 5.4146671 0 28
-37.248573 14.57506 6.5761704 0 30
-37.118763 14.524266 7.5098786 0 31
-33.048992 11.850281 -16.622936 0 4
-32.98111 11.825941 -15.601209 0 5
-33.320026 11.947466 -14.784268 0 6
-33.720341 12.091004 -13.991934 0 7
-34.176296 12.254496 -13.215775 0 8
-34.738701 12.456155 -12.468502 0 9
-35.436672 12.706424 -11.750245 0 10
-36.626549 13.133075 -11.157932 0 11
-37.792927 13.551299 -10.508479 0 12
-38.832397 13.92402 -9.7775974 0 13
-39.87711 14.298618 -9.0047903 0 14
-41.714603 14.957483 -8.3468056 0 15
-44.065556 15.800457 -3.2726481 0 20
-41.743931 14.968 -2.064528 0 21
-40.963829 14.68828 -1.0118034 0 22
-40.565773 14.54555 0.0012302848 0 23
-40.404469 14.487713 1.0004394 0 24
-40.473919 14.512615 2.0041773 0 25
-40.764023 14.616637 3.0299356 0 26
-41.407757 14.847459 4.1085005 0 27
-43.009998 15.42197 5.3427405 0 28
-38.469986 13.794071 5.7457895 0 29
-38.194641 13.695342 6.671062 0 30
-38.133396 13.673381 7.6326261 0 31
-35.160778 11.480311 -12.496598 0 9
-35.377098 11.550942 -11.615792 0 10
-35.733353 11.667263 -10.779388 0 11
-36.154469 11.804761 -9.9546022 0 12
-36.656631 11.968721 -9.139514 0 13
-37.199215 12.14588 -8.3179502 0 14
-37.686977 12.30514 -7.4671717 0 15
-38.136761 12.451998 -6.5934696 0 16
-38.607269 12.605622 -5.7075467 0 17
-39.140335 12.779674 -4.8121238 0 18
-39.842804 13.009035 -3.9121563 0 19
-40.757816 13.307796 -2.9973924 0 20
-40.900261 13.354304 -2.0030239 0 21
-40.851429 13.338361 -0.99916101 0 22
-40.785461 13.316821 0.0012248527 0 23
-40.624367 13.264224 0.99604881 0 24
-40.681427 13.282853 1.9947555 0 25
-40.990303 13.383704 3.0169637 0 26
-41.5 13.550125 4.0773907 0 27
-42.249237 13.794758 5.1969213 0 28
-41.523285 13.557728 6.1411824 0 29
-39.257816 12.818031 6.7897105 0 30
-39.010517 12.737288 7.7318397 0 31
-37.599133 11.093481 -8.3327551 0 14
-37.943264 11.195015 -7.4512267 0 15
-38.340599 11.312248 -6.5698795 0 16
-38.776009 11.440714 -5.6816149 0 17
-39.184723 11.561303 -4.7748232 0 18
-39.651642 11.699065 -3.8588309 0 19
-40.149025 11.845818 -2.9264152 0 20
-40.447456 11.933868 -1.9632677 0 21
-40.40329 11.920836 -0.9794296 0 22
-40.998589 12.096478 0.0012203255 0 23
-40.902504 12.068128 0.99396747 0 24
-40.956875 12.08417 1.9904377 0 25
-41.281902 12.180069 3.0114591 0 26
-40.987656 12.093252 3.9913111 0 27
-41.068077 12.116981 5.0067964 0 28
-40.641811 11.991212 5.9574666 0 29
-40.045074 11.815147 6.864399 0 30
-39.769558 11.733857 7.8123226 0 31
-40.324074 10.65006 -4.8744082 0 18
-40.499886 10.696494 -3.9098973 0 19
-40.840736 10.786516 -2.9530547 0 20
-40.684181 10.745169 -1.9589839 0 21
-40.851967 10.789482 -0.98239559 0 22
-41.32592 10.914659 0.0012202428 0 23
-41.238686 10.891619 0.99413198 0 24
-41.313065 10.911263 1.9917101 0 25
-41.66531 11.004295 3.0151491 0 26
-41.356377 10.922703 3.9950476 0 27
-41.554543 10.97504 5.0256357 0 28
-41.318443 10.912683 6.0082703 0 29
-41.000294 10.828657 6.9719992 0 30
-40.931526 10.810494 7.9763513 0 31
-42.447475 9.9175386 -3.0473981 0 20
-41.932682 9.7972612 -2.0047367 0 21
-42.182941 9.855732 -1.0071861 0 22
-41.931507 9.7969856 0.0012293162 0 23
-41.717201 9.7469158 0.99851322 0 24
-41.782528 9.7621784 2.0000131 0 25
-42.197887 9.8592234 3.031966 0 26
-42.561726 9.944232 4.0822358 0 27
-42.353474 9.8955755 5.0858197 0 28
-43.474556 8.850523 -1.0315363 0 22
-42.619278 8.6764069 0.0012416688 0 23
-42.352859 8.6221685 1.0073905 0 24
-42.458473 8.6436701 2.0196636 0 25
-42.990566 8.7519922 3.0696104 0 26
-44.010548 7.6519117 0.0012752792 0 23
-43.523064 7.5671549 1.0296353 0 24
-43.707561 7.5992327 2.0678549 0 25
