# .PCD v0.7 - Point Cloud Data file format
VERSION 0.7
FIELDS x y z intensity ring
SIZE 4 4 4 4 2
TYPE F F F F U
COUNT 1 1 1 1 1
WIDTH 217
HEIGHT 1
VIEWPOINT 0 0 0 1 0 0 0
POINTS 217
DATA ascii
-43.241913 24.554014 -1.1561722 0 22
-41.893475 23.788332 0.0013753533 0 23
-41.602364 23.62303 1.1150681 0 24
-41.828823 23.751621 2.2421184 0 25
-43.103233 24.475267 3.4680729 0 26
-41.868477 22.210649 -1.101954 0 22
-41.179665 21.845243 0.0013307895 0 23
-40.974472 21.736393 1.0810741 0 24
-41.103859 21.805031 2.1688232 0 25
-41.7071 22.12504 3.3032925 0 26
-44.024506 21.759701 -29.123676 0 0
-43.931305 21.713633 -27.541023 0 1
-43.863102 21.679924 -26.018856 0 2
-43.81208 21.654707 -24.547039 0 3
-43.754452 21.626223 -23.108372 0 4
-43.7015 21.60005 -21.706354 0 5
-43.652084 21.575624 -20.337475 0 6
-43.615383 21.557486 -19.003038 0 7
-43.558926 21.529579 -17.686518 0 8
-43.530815 21.515686 -16.405712 0 9
-43.486172 21.49362 -15.140588 0 10
-43.458607 21.479996 -13.901482 0 11
-43.414818 21.458353 -12.675493 0 12
-43.38485 21.443541 -11.47027 0 13
-43.345634 21.424158 -10.277628 0 14
-43.316391 21.409704 -9.100852 0 15
-43.287849 21.395597 -7.9359918 0 16
-43.27182 21.387674 -6.7834482 0 17
-43.254433 21.379082 -5.6390748 0 18
-42.495991 21.00421 -4.4246531 0 19
-42.470409 20.991568 -3.3119526 0 20
-42.511051 21.011654 -2.2076328 0 21
-41.340843 20.433264 -1.072192 0 22
-40.809692 20.170736 0.0012995913 0 23
-40.610256 20.072163 1.0558317 0 24
-40.710934 20.121923 2.1167498 0 25
-41.165855 20.346773 3.2128546 0 26
-42.261898 20.888508 4.4029951 0 27
-43.303726 19.878736 -28.257826 0 0
-43.276398 19.866192 -26.762022 0 1
-43.256714 19.857157 -25.310703 0 2
-43.261688 19.859438 -23.9095 0 3
-43.244373 19.85149 -22.528824 0 4
-43.231579 19.845617 -21.181341 0 5
-43.205914 19.833836 -19.856241 0 6
-43.193119 19.827961 -18.563494 0 7
-43.168987 19.816885 -17.290155 0 8
-43.158096 19.811886 -16.044359 0 9
-43.158245 19.811953 -14.822353 0 10
-43.143795 19.805321 -13.613364 0 11
-43.117973 19.793467 -12.417869 0 12
-43.1138 19.79155 -11.243814 0 13
-43.098053 19.784323 -10.08015 0 14
-43.102467 19.786346 -8.9329252 0 15
-43.076923 19.774622 -7.7900753 0 16
-43.071693 19.772221 -6.6603813 0 17
-43.055897 19.764971 -5.5369639 0 18
-42.561909 19.538202 -4.371336 0 19
-42.542389 19.529242 -3.2725124 0 20
-41.99482 19.277878 -2.1512086 0 21
-41.041847 18.840412 -1.0499821 0 22
-40.547813 18.613625 0.0012737163 0 23
-40.391621 18.541924 1.0358863 0 24
-40.467667 18.576834 2.0755272 0 25
-40.819183 18.738199 3.1425347 0 26
-41.655003 19.121883 4.2808318 0 27
-30.517962 12.962801 -19.663631 0 0
-43.932205 18.660631 -26.825356 0 1
-43.940414 18.664118 -25.386892 0 2
-43.937286 18.66279 -23.977009 0 3
-43.931026 18.660131 -22.598259 0 4
-43.927425 18.658602 -21.251169 0 5
-43.907944 18.650328 -19.924696 0 6
-43.927452 18.658613 -18.641289 0 7
-43.913284 18.652596 -17.366713 0 8
-43.910316 18.651335 -16.11838 0 9
-43.917873 18.654545 -14.893248 0 10
-43.890301 18.642832 -13.674466 0 11
-43.892834 18.643908 -12.481795 0 12
-43.901501 18.647589 -11.305022 0 13
-43.889759 18.642603 -10.136015 0 14
-43.899685 18.646818 -8.9835443 0 15
-43.892662 18.643835 -7.8376098 0 16
-43.879391 18.638199 -6.69981 0 17
-43.883518 18.639952 -5.572309 0 18
-43.303944 18.393772 -4.3915243 0 19
-43.301895 18.392902 -3.2889788 0 20
-41.810257 17.759315 -2.1147761 0 21
-40.965195 17.400366 -1.0348198 0 22
-40.532768 17.216688 0.0012572055 0 23
-40.36927 17.147242 1.0222719 0 24
-40.438953 17.176838 2.047929 0 25
-40.783539 17.323206 3.1002405 0 26
-41.462833 17.611742 4.2074084 0 27
-43.349854 18.413273 5.5072703 0 28
-36.341774 15.436523 7.4392433 0 31
-30.694672 12.010572 -19.547356 0 0
-31.012024 12.134749 -18.715845 0 1
-31.379848 12.278676 -17.918968 0 2
-31.803091 12.444287 -17.153307 0 3
-32.285496 12.633049 -16.414509 0 4
-32.879662 12.865541 -15.7214 0 5
-34.094833 13.341027 -15.291636 0 6
-35.532101 13.903418 -14.903132 0 7
-36.763554 14.385275 -14.369974 0 8
-37.927494 14.840715 -13.760232 0 9
-39.00074 15.260668 -13.071871 0 10
-40.071915 15.679811 -12.339533 0 11
-41.172966 16.110641 -11.572105 0 12
-45.486477 17.798483 -4.5591817 0 19
-44.478897 17.404226 -3.339066 0 20
-41.796528 16.354637 -2.0894816 0 21
-40.950958 16.023773 -1.022423 0 22
-40.553394 15.868209 0.0012432087 0 23
-40.387264 15.803205 1.0108268 0 24
-40.442081 15.824654 2.0242555 0 25
-40.755219 15.947181 3.0620372 0 26
-41.420547 16.20752 4.1542091 0 27
-43.093948 16.862307 5.4110537 0 28
-37.247208 14.574525 6.5759292 0 30
-37.127865 14.527827 7.5117197 0 31
-33.001644 11.833304 -16.599121 0 4
-32.98679 11.827977 -15.603895 0 5
-33.331226 11.951482 -14.789237 0 6
-33.713593 12.088584 -13.989133 0 7
-34.177013 12.254752 -13.216052 0 8
-34.726341 12.451722 -12.464066 0 9
-35.446133 12.709816 -11.753382 0 10
-36.627953 13.133578 -11.15836 0 11
-37.801712 13.55445 -10.510921 0 12
-38.844288 13.928284 -9.780592 0 13
-39.876919 14.298551 -9.0047474 0 14
-41.707005 14.95476 -8.3452854 0 15
-44.146049 15.82932 -3.2786262 0 20
-41.742962 14.967652 -2.0644801 0 21
-40.968113 14.689816 -1.0119092 0 22
-40.57782 14.549871 0.0012306502 0 23
-40.403255 14.487278 1.0004094 0 24
-40.486595 14.517161 2.0048051 0 25
-40.759628 14.615062 3.029609 0 26
-41.382725 14.838483 4.1060162 0 27
-43.012238 15.422773 5.343019 0 28
-38.494331 13.8028 5.7494254 0 29
-38.170471 13.686675 6.6668406 0 30
-38.14835 13.678743 7.6356196 0 31
-35.168072 11.482694 -12.499191 0 9
-35.367565 11.54783 -11.612662 0 10
-35.74308 11.670439 -10.782322 0 11
-36.147778 11.802576 -9.9527607 0 12
-36.671459 11.973563 -9.1432114 0 13
-37.195 12.144504 -8.317008 0 14
-37.703625 12.310575 -7.4704704 0 15
-38.152287 12.457067 -6.5961542 0 16
-38.617176 12.608857 -5.7090111 0 17
-39.136536 12.778433 -4.811657 0 18
-39.849953 13.01137 -3.9128582 0 19
-40.750957 13.305556 -2.9968879 0 20
-40.922432 13.361545 -2.0041096 0 21
-40.837242 13.33373 -0.99881405 0 22
-40.778652 13.314598 0.0012246482 0 23
-40.635071 13.267718 0.99631125 0 24
-40.692024 13.286313 1.9952751 0 25
-40.991306 13.384032 3.0170376 0 26
-41.507458 13.552561 4.0781236 0 27
-42.23418 13.789842 5.1950693 0 28
-41.526943 13.558922 6.1417232 0 29
-39.260937 12.819051 6.7902503 0 30
-39.00988 12.737079 7.7317133 0 31
-37.593132 11.091711 -8.3314257 0 14
-37.933289 11.192073 -7.4492683 0 15
-38.33363 11.310191 -6.5686846 0 16
-38.761608 11.436465 -5.6795049 0 17
-39.203392 11.566812 -4.7770982 0 18
-39.648247 11.698064 -3.8585007 0 19
-40.140739 11.843372 -2.9258115 0 20
-40.453125 11.935541 -1.9635428 0 21
-40.414555 11.924161 -0.97970271 0 22
-40.998135 12.096344 0.0012203121 0 23
-40.897301 12.066593 0.99384105 0 24
-40.956463 12.084049 1.9904177 0 25
-41.268967 12.176251 3.0105155 0 26
-40.983444 12.09201 3.990901 0 27
-41.074257 12.118804 5.0075498 0 28
-40.641491 11.991117 5.9574199 0 29
-40.049824 11.816548 6.8652134 0 30
-39.764542 11.732377 7.8113375 0 31
-40.326962 10.650823 -4.8747573 0 18
-40.516502 10.700882 -3.9115014 0 19
-40.844093 10.787403 -2.9532974 0 20
-40.700554 10.749493 -1.9597721 0 21
-40.850758 10.789163 -0.98236656 0 22
-41.326855 10.914906 0.0012202704 0 23
-41.259884 10.897218 0.99464297 0 24
-41.318012 10.91257 1.9919486 0 25
-41.655144 11.001611 3.0144136 0 26
-41.358044 10.923143 3.9952085 0 27
-41.551662 10.97428 5.0252876 0 28
-41.321159 10.913402 6.0086651 0 29
-41.007008 10.83043 6.9731407 0 30
-40.936172 10.811722 7.9772568 0 31
-42.4552 9.919343 -3.0479529 0 20
-41.918736 9.7940025 -2.0040698 0 21
-42.191174 9.8576555 -1.0073828 0 22
-41.944294 9.7999744 0.0012296912 0 23
-41.703426 9.7436972 0.99818355 0 24
-41.782059 9.7620687 1.9999908 0 25
-42.182564 9.8556433 3.030865 0 26
-42.558727 9.943531 4.0819483 0 27
-42.349934 9.8947487 5.0853944 0 28
-43.469612 8.8495169 -1.031419 0 22
-42.628407 8.6782646 0.0012419347 0 23
-42.350197 8.6216269 1.0073272 0 24
-42.461735 8.6443338 2.0198185 0 25
-42.964497 8.746686 3.0677493 0 26
-44.029503 7.6552072 0.0012758285 0 23
-43.521023 7.5668006 1.0295871 0 24
-43.708275 7.5993571 2.0678887 0 25
