# .PCD v0.7 - Point Cloud Data file format
VERSION 0.7
FIELDS x y z intensity ring
SIZE 4 4 4 4 2
TYPE F F F F U
COUNT 1 1 1 1 1
WIDTH 217
HEIGHT 1
VIEWPOINT 0 0 0 1 0 0 0
POINTS 217
DATA ascii
-43.245926 24.556292 -1.1562794 0 22
-41.901001 23.792606 0.0013756005 0 23
-41.596157 23.619505 1.1149018 0 24
-41.825172 23.749548 2.2419226 0 25
-43.060139 24.450798 3.4646056 0 26
-41.866531 22.209618 -1.1019027 0 22
-41.19083 21.851168 0.0013311504 0 23
-40.974808 21.73657 1.0810829 0 24
-41.112309 21.809513 2.1692691 0 25
-41.699627 22.121078 3.3027008 0 26
-44.06525 21.779839 -29.150629 0 0
-43.972988 21.734238 -27.567156 0 1
-43.896908 21.696632 -26.038908 0 2
-43.824692 21.660938 -24.554104 0 3
-43.771675 21.634733 -23.117466 0 4
-43.715542 21.606991 -21.713331 0 5
-43.67791 21.58839 -20.349506 0 6
-43.641434 21.57036 -19.014389 0 7
-43.571507 21.535799 -17.691628 0 8
-43.532303 21.516422 -16.406273 0 9
-43.495171 21.498068 -15.143722 0 10
-43.476017 21.488602 -13.90705 0 11
-43.429646 21.465683 -12.679823 0 12
-43.400276 21.451166 -11.474349 0 13
-43.3615 21.432001 -10.281389 0 14
-43.32901 21.415941 -9.1035032 0 15
-43.287365 21.395359 -7.9359031 0 16
-43.277222 21.390345 -6.7842956 0 17
-43.247074 21.375444 -5.6381154 0 18
-42.50206 21.007212 -4.4252853 0 19
-42.476997 20.994823 -3.3124661 0 20
-42.522461 21.017294 -2.2082253 0 21
-41.338902 20.432304 -1.0721415 0 22
-40.808937 20.170362 0.0012995672 0 23
-40.607738 20.070917 1.0557662 0 24
-40.7178 20.125317 2.1171067 0 25
-41.148914 20.3384 3.2115326 0 26
-42.236187 20.875799 4.4003162 0 27
-43.31361 19.883274 -28.264277 0 0
-43.297943 19.876081 -26.775343 0 1
-43.268013 19.862343 -25.317314 0 2
-43.245281 19.851908 -23.900433 0 3
-43.24152 19.850182 -22.527338 0 4
-43.217495 19.839151 -21.17444 0 5
-43.211601 19.836447 -19.858856 0 6
-43.193035 19.827923 -18.563459 0 7
-43.186977 19.825144 -17.297359 0 8
-43.167831 19.816355 -16.047979 0 9
-43.160923 19.813181 -14.823273 0 10
-43.146496 19.806559 -13.614216 0 11
-43.126003 19.797153 -12.420181 0 12
-43.132755 19.800251 -11.248757 0 13
-43.105129 19.787571 -10.081805 0 14
-43.089844 19.780554 -8.9303093 0 15
-43.073929 19.773249 -7.7895341 0 16
-43.063499 19.768459 -6.6591144 0 17
-43.057724 19.765808 -5.5371985 0 18
-42.544827 19.530361 -4.3695817 0 19
-42.542358 19.529228 -3.2725103 0 20
-42.015839 19.287527 -2.1522853 0 21
-41.030426 18.835171 -1.0496899 0 22
-40.54393 18.611843 0.0012735943 0 23
-40.390377 18.541353 1.0358543 0 24
-40.465702 18.575932 2.0754263 0 25
-40.846348 18.750668 3.1446257 0 26
-41.65942 19.123913 4.2812858 0 27
-30.548063 12.975588 -19.683029 0 0
-43.939011 18.663523 -26.829514 0 1
-43.93623 18.66234 -25.384474 0 2
-43.926136 18.658054 -23.970922 0 3
-43.928303 18.658974 -22.596857 0 4
-43.918472 18.6548 -21.24684 0 5
-43.910595 18.651453 -19.925898 0 6
-43.922138 18.656357 -18.639034 0 7
-43.894901 18.644787 -17.359444 0 8
-43.913712 18.652777 -16.119627 0 9
-43.890945 18.643106 -14.884116 0 10
-43.900745 18.647268 -13.67772 0 11
-43.892899 18.643936 -12.481814 0 12
-43.89286 18.643919 -11.302797 0 13
-43.904232 18.64875 -10.139358 0 14
-43.878361 18.637762 -8.9791813 0 15
-43.889969 18.642691 -7.8371286 0 16
-43.883621 18.639996 -6.7004557 0 17
-43.883003 18.639732 -5.5722437 0 18
-43.326668 18.403425 -4.3938289 0 19
-43.303352 18.39352 -3.2890894 0 20
-41.815971 17.761742 -2.1150651 0 21
-40.975979 17.404945 -1.0350922 0 22
-40.543755 17.221354 0.0012575462 0 23
-40.378956 17.151356 1.0225172 0 24
-40.450287 17.181654 2.0485029 0 25
-40.776859 17.320368 3.0997329 0 26
-41.472778 17.615967 4.2084179 0 27
-43.315571 18.39871 5.5029149 0 28
-36.345398 15.438063 7.4399853 0 31
-30.690754 12.009039 -19.544861 0 0
-30.998463 12.129443 -18.707659 0 1
-31.385527 12.280898 -17.922213 0 2
-31.80019 12.443152 -17.151743 0 3
-32.290653 12.635066 -16.41713 0 4
-32.863808 12.859338 -15.71382 0 5
-34.113377 13.348284 -15.299953 0 6
-35.569698 13.91813 -14.918902 0 7
-36.790901 14.395977 -14.380664 0 8
-37.925785 14.840047 -13.759612 0 9
-39.01889 15.26777 -13.077954 0 10
-40.07943 15.682751 -12.341847 0 11
-41.190426 16.117474 -11.577013 0 12
-45.476021 17.794392 -4.5581336 0 19
-45.513077 17.808893 -3.4167027 0 20
-41.797798 16.355133 -2.089545 0 21
-40.983448 16.036486 -1.0232341 0 22
-40.560753 15.871088 0.0012434341 0 23
-40.381084 15.800786 1.0106721 0 24
-40.443089 15.825047 2.0243058 0 25
-40.753296 15.946428 3.061893 0 26
-41.414474 16.205143 4.1535997 0 27
-43.053288 16.846397 5.4059486 0 28
-37.262611 14.580553 6.578649 0 30
-37.135624 14.530865 7.5132904 0 31
-32.963127 11.819492 -16.579746 0 4
-32.970932 11.822291 -15.596395 0 5
-33.32806 11.950346 -14.787832 0 6
-33.726063 12.093056 -13.994308 0 7
-34.1796 12.25568 -13.217052 0 8
-34.722916 12.450495 -12.462836 0 9
-35.450153 12.711259 -11.754716 0 10
-36.619865 13.130679 -11.155896 0 11
-37.7831 13.547776 -10.505747 0 12
-38.845222 13.928618 -9.7808266 0 13
-39.86747 14.295163 -9.002614 0 14
-41.698971 14.951879 -8.3436785 0 15
-44.25845 15.869624 -3.286974 0 20
-41.762745 14.974746 -2.0654583 0 21
-40.971497 14.691031 -1.0119928 0 22
-40.565338 14.545396 0.0012302716 0 23
-40.40757 14.488825 1.0005162 0 24
-40.469849 14.511156 2.0039759 0 25
-40.75388 14.613 3.0291817 0 26
-41.375851 14.836019 4.1053343 0 27
-42.990944 15.415138 5.3403735 0 28
-38.511528 13.808967 5.7519941 0 29
-38.185295 13.69199 6.6694293 0 30
-38.124779 13.670291 7.6309013 0 31
-35.169415 11.483132 -12.499668 0 9
-35.358696 11.544933 -11.609749 0 10
-35.731796 11.666754 -10.778918 0 11
-36.157234 11.805663 -9.9553633 0 12
-36.646965 11.965565 -9.137104 0 13
-37.188488 12.142378 -8.3155518 0 14
-37.705116 12.311061 -7.4707651 0 15
-38.152939 12.457279 -6.5962667 0 16
-38.601013 12.60358 -5.7066216 0 17
-39.132893 12.777244 -4.8112087 0 18
-39.838898 13.00776 -3.911773 0 19
-40.737183 13.301058 -2.9958749 0 20
-40.937611 13.3665 -2.0048528 0 21
-40.839329 13.33441 -0.99886507 0 22
-40.787731 13.317563 0.001224921 0 23
-40.621529 13.263297 0.99597919 0 24
-40.688046 13.285015 1.9950801 0 25
-40.977512 13.379528 3.0160224 0 26
-41.50774 13.552652 4.0781507 0 27
-42.204727 13.780225 5.1914463 0 28
-41.560764 13.569966 6.1467257 0 29
-39.260365 12.818864 6.7901516 0 30
-39.004368 12.735279 7.7306209 0 31
-37.5868 11.089843 -8.3300228 0 14
-37.923431 11.189164 -7.4473319 0 15
-38.332752 11.309933 -6.5685349 0 16
-38.753292 11.434011 -5.6782861 0 17
-39.20248 11.566543 -4.7769871 0 18
-39.642063 11.69624 -3.857899 0 19
-40.143028 11.844048 -2.9259782 0 20
-40.45068 11.93482 -1.9634243 0 21
-40.407928 11.922205 -0.97954202 0 22
-40.998203 12.096365 0.0012203141 0 23
-40.902397 12.068097 0.99396491 0 24
-40.964554 12.086435 1.9908109 0 25
-41.253654 12.171734 3.0093982 0 26
-40.989975 12.093936 3.9915369 0 27
-41.078979 12.120197 5.0081253 0 28
-40.652046 11.994232 5.9589672 0 29
-40.058968 11.819245 6.8667803 0 30
-39.75864 11.730636 7.8101778 0 31
-40.319218 10.648777 -4.8738208 0 18
-40.506493 10.698238 -3.9105351 0 19
-40.834385 10.784838 -2.9525952 0 20
-40.732384 10.757899 -1.9613048 0 21
-40.827549 10.783033 -0.98180842 0 22
-41.314079 10.911531 0.0012198932 0 23
-41.257404 10.896564 0.99458325 0 24
-41.308929 10.910172 1.9915107 0 25
-41.649551 11.000134 3.014009 0 26
-41.353828 10.922029 3.994801 0 27
-41.555141 10.975199 5.0257082 0 28
-41.320763 10.913296 6.0086074 0 29
-40.999161 10.828358 6.971807 0 30
-40.934753 10.811348 7.9769807 0 31
-42.488647 9.9271584 -3.050354 0 20
-41.936604 9.7981777 -2.0049243 0 21
-42.184422 9.8560781 -1.0072215 0 22
-41.946556 9.8005018 0.0012297574 0 23
-41.71632 9.7467089 0.99849212 0 24
-41.800022 9.7662659 2.0008507 0 25
-42.172787 9.8533592 3.0301626 0 26
-42.57449 9.9472141 4.0834599 0 27
-42.348167 9.8943357 5.0851827 0 28
-43.479416 8.8515129 -1.0316516 0 22
-42.631527 8.6788998 0.0012420256 0 23
-42.350239 8.6216354 1.0073283 0 24
-42.445507 8.6410303 2.0190468 0 25
-42.968884 8.7475786 3.0680623 0 26
-44.032139 7.6556659 0.0012759048 0 23
-43.520504 7.56671 1.0295749 0 24
-43.680187 7.5944729 2.0665598 0 25
