# .PCD v0.7 - Point Cloud Data file format
VERSION 0.7
FIELDS x y z intensity ring
SIZE 4 4 4 4 2
TYPE F F F F U
COUNT 1 1 1 1 1
WIDTH 505
HEIGHT 1
VIEWPOINT 0 0 0 1 0 0 0
POINTS 505
DATA ascii
22.245779 12.213091 -15.050269 0 0
22.227467 12.203036 -14.250854 0 1
21.042625 12.351033 -14.470127 0 0
20.990688 12.320548 -13.67897 0 1
20.917713 12.277716 -12.898043 0 2
20.852003 12.239147 -12.144336 0 3
19.959286 12.49849 -13.966063 0 0
19.921165 12.474619 -13.209854 0 1
19.874739 12.445546 -12.470032 0 2
19.805 12.401875 -11.737007 0 3
19.721575 12.349635 -11.017066 0 4
19.636023 12.296062 -10.316238 0 5
19.596037 12.271024 -9.6568966 0 6
18.996401 12.668354 -12.832432 0 1
18.890923 12.598013 -12.074626 0 2
18.837967 12.562697 -11.372891 0 3
18.771978 12.518691 -10.682891 0 4
18.689941 12.463982 -10.002996 0 5
18.602949 12.40597 -9.3391104 0 6
18.528893 12.356582 -8.6989021 0 7
18.468904 12.316577 -8.0804949 0 8
18.418083 12.282685 -7.4795313 0 9
17.960735 12.736891 -11.05941 0 3
17.875448 12.67641 -10.375443 0 4
17.822205 12.638653 -9.7286959 0 5
17.745802 12.584471 -9.0863686 0 6
17.658134 12.522301 -8.4553347 0 7
17.591259 12.474876 -7.8499117 0 8
17.492493 12.404836 -7.2452378 0 9
17.417473 12.351635 -6.664681 0 10
17.34012 12.296781 -6.0959311 0 11
17.292294 12.262864 -5.548584 0 12
17.110847 12.887522 -10.142142 0 4
17.008701 12.810586 -9.4814072 0 5
16.953068 12.768684 -8.8644419 0 6
16.881718 12.714945 -8.2548857 0 7
16.800615 12.653861 -7.655992 0 8
16.711164 12.586488 -7.0683179 0 9
16.632042 12.526895 -6.4990253 0 10
16.541189 12.458466 -5.938313 0 11
16.453018 12.392057 -5.3911767 0 12
16.384468 12.340427 -4.8615971 0 13
16.306292 12.281546 -4.339241 0 14
16.268122 12.252799 -3.8359973 0 15
16.282942 12.26396 -3.3502648 0 16
16.349325 13.065566 -9.3190231 0 5
16.225557 12.966656 -8.6750431 0 6
16.153641 12.909184 -8.0766973 0 7
16.069178 12.841684 -7.4875345 0 8
15.995548 12.782845 -6.9179502 0 9
15.90704 12.712112 -6.3556643 0 10
15.817315 12.640409 -5.8062811 0 11
15.735257 12.574832 -5.2720647 0 12
15.649887 12.50661 -4.7481756 0 13
15.570051 12.442808 -4.2366009 0 14
15.479913 12.370774 -3.7323151 0 15
15.412496 12.316897 -3.2425609 0 16
15.333287 12.253599 -2.7584217 0 17
15.270854 12.203705 -2.2846546 0 18
15.243864 12.182136 -1.8214043 0 19
15.489594 13.124023 -7.929729 0 7
15.393803 13.042861 -7.3442264 0 8
15.314414 12.975596 -6.7816229 0 9
15.235548 12.908775 -6.2328205 0 10
15.160155 12.844896 -5.698019 0 11
15.062685 12.762311 -5.1673069 0 12
14.984887 12.696395 -4.655046 0 13
14.896415 12.621434 -4.1501541 0 14
14.821399 12.557875 -3.6589284 0 15
14.720443 12.472337 -3.1709619 0 16
14.650243 12.412857 -2.6985168 0 17
14.575653 12.349659 -2.2327504 0 18
14.500889 12.286313 -1.7740295 0 19
14.42001 12.217785 -1.3212899 0 20
14.366486 12.172435 -0.87661815 0 21
14.317186 12.130665 -0.43630061 0 22
14.298158 12.114543 0.00053500582 0 23
14.807908 13.294669 -7.2437449 0 8
14.687143 13.186246 -6.6686797 0 9
14.599475 13.107536 -6.1239705 0 10
14.51784 13.034245 -5.5948901 0 11
14.441204 12.96544 -5.079659 0 12
14.369714 12.901255 -4.5770736 0 13
14.279481 12.820244 -4.0790987 0 14
14.196325 12.745585 -3.5934367 0 15
14.115079 12.672642 -3.1176169 0 16
14.033481 12.599381 -2.6504219 0 17
13.956047 12.529861 -2.1920168 0 18
13.868626 12.451373 -1.7396784 0 19
13.8037 12.393084 -1.296873 0 20
13.719555 12.317536 -0.85835963 0 21
13.652052 12.256932 -0.42657498 0 22
13.573931 12.186794 0.00052077888 0 23
13.512585 12.131717 0.42325455 0 24
13.467864 12.091566 0.84364831 0 25
13.409377 12.039056 1.2608598 0 26
13.473713 12.096818 1.6911836 0 27
14.039014 13.351245 -6.0471077 0 10
13.941524 13.258531 -5.5171533 0 11
13.851671 13.17308 -5.0032086 0 12
13.770827 13.096197 -4.5041733 0 13
13.686554 13.016052 -4.0147743 0 14
13.610138 12.943379 -3.5376253 0 15
13.528151 12.865409 -3.0682669 0 16
13.457545 12.798264 -2.6099412 0 17
13.382236 12.726643 -2.1583676 0 18
13.29539 12.644052 -1.712584 0 19
13.221712 12.573983 -1.2755716 0 20
13.141602 12.497797 -0.84429228 0 21
13.076564 12.435946 -0.41957185 0 22
13.000743 12.363839 0.0005121901 0 23
12.923578 12.290455 0.41568205 0 24
12.854733 12.224982 0.82687724 0 25
12.770707 12.145073 1.2330719 0 26
12.710359 12.08768 1.638236 0 27
12.651756 12.031949 2.0415618 0 28
12.593686 11.976725 2.4434173 0 29
12.578653 11.962428 2.8539331 0 30
13.448521 13.545311 -5.4736338 0 11
13.319613 13.415476 -4.9480538 0 12
13.236376 13.331639 -4.4526706 0 13
13.13998 13.23455 -3.9642236 0 14
13.050253 13.144177 -3.4887083 0 15
12.988969 13.082451 -3.0298822 0 16
12.905334 12.998215 -2.5741303 0 17
12.826583 12.918897 -2.1276691 0 18
12.740686 12.832382 -1.687874 0 19
12.684615 12.775908 -1.2586091 0 20
12.597672 12.688338 -0.83239836 0 21
12.535357 12.625575 -0.41366217 0 22
12.447443 12.537028 0.00050435873 0 23
12.377318 12.466399 0.40945056 0 24
12.314909 12.403541 0.81471479 0 25
12.237541 12.325616 1.2152455 0 26
12.180036 12.267696 1.6145953 0 27
12.098034 12.185104 2.0078115 0 28
12.029331 12.115907 2.4003947 0 29
11.967676 12.053808 2.7926457 0 30
11.894907 11.980515 3.1808491 0 31
12.905701 13.766883 -4.9390264 0 12
12.747751 13.598393 -4.4177585 0 13
12.636881 13.480124 -3.9275365 0 14
12.557604 13.395557 -3.4583535 0 15
12.473306 13.305634 -2.9974337 0 16
12.385862 13.212356 -2.5450976 0 17
12.306179 13.127356 -2.1029711 0 18
12.225852 13.041669 -1.6685656 0 19
12.172112 12.984342 -1.2442179 0 20
12.087567 12.894156 -0.82280469 0 21
12.016357 12.818194 -0.40850639 0 22
11.951224 12.748714 0.00049887149 0 23
11.876987 12.669524 0.40476048 0 24
11.808144 12.596087 0.80477214 0 25
11.743394 12.527017 1.20138 0 26
11.676851 12.456034 1.5946221 0 27
11.587557 12.360781 1.9811481 0 28
11.531403 12.300879 2.3705015 0 29
11.460937 12.225711 2.755136 0 30
11.392872 12.153104 3.1385722 0 31
12.208801 13.796196 -3.9159312 0 14
12.083515 13.65462 -3.4342949 0 15
11.988723 13.547503 -2.9731896 0 16
11.905655 13.453635 -2.5247197 0 17
11.826681 13.364392 -2.0857131 0 18
11.748066 13.275556 -1.654673 0 19
11.668712 13.185884 -1.2309349 0 20
11.600792 13.109133 -0.81494284 0 21
11.527159 13.025927 -0.40441754 0 22
11.467513 12.958525 0.00049400033 0 23
11.390056 12.870997 0.40058929 0 24
11.323989 12.79634 0.79647547 0 25
11.26717 12.732133 1.1895516 0 26
11.207713 12.664946 1.5795403 0 27
11.124618 12.571046 1.9628713 0 28
11.053962 12.491204 2.3450804 0 29
10.99296 12.42227 2.7272141 0 30
10.923512 12.343794 3.1055813 0 31
11.702043 14.013839 -3.4387622 0 15
11.551248 13.833253 -2.9619298 0 16
11.44721 13.708662 -2.5098958 0 17
11.357971 13.601793 -2.0710409 0 18
11.27665 13.504408 -1.6421851 0 19
11.193927 13.405341 -1.22093 0 20
11.129795 13.32854 -0.80839354 0 21
11.06847 13.2551 -0.40150544 0 22
10.994379 13.166372 0.00048969407 0 23
10.924253 13.082392 0.3972477 0 24
10.864975 13.011404 0.79012883 0 25
10.801602 12.935513 1.1791059 0 26
10.742164 12.86433 1.5653145 0 27
10.677761 12.787205 1.9479737 0 28
10.604917 12.699969 2.3261793 0 29
10.54219 12.62485 2.704155 0 30
10.490933 12.563469 3.0838332 0 31
11.048165 14.030025 -2.50965 0 17
10.934763 13.886016 -2.0656855 0 18
10.846713 13.774202 -1.6364664 0 19
10.763526 13.668563 -1.2162695 0 20
10.685846 13.569919 -0.80410278 0 21
10.620121 13.486454 -0.39911705 0 22
10.552255 13.40027 0.00048692981 0 23
10.487 13.317405 0.39508259 0 24
10.417641 13.229325 0.78488404 0 25
10.365328 13.162892 1.1722348 0 26
10.29828 13.077749 1.5546818 0 27
10.240688 13.004614 1.935526 0 28
10.177785 12.924733 2.3128965 0 29
10.122622 12.854683 2.6900527 0 30
10.046915 12.758542 3.0596831 0 31
10.603271 14.290137 -2.0796795 0 18
10.441378 14.071952 -1.6355673 0 19
10.353416 13.953405 -1.2146765 0 20
10.268459 13.838908 -0.80224979 0 21
10.190401 13.733707 -0.39761594 0 22
10.115699 13.633031 0.00048463937 0 23
10.049054 13.543214 0.3930642 0 24
9.9981937 13.474669 0.78209472 0 25
9.9370794 13.392303 1.1667882 0 26
9.8780861 13.312799 1.5482866 0 27
9.812417 13.224296 1.9255179 0 28
9.7525558 13.14362 2.301034 0 29
9.7058048 13.080612 2.6779408 0 30
9.6431961 12.996234 3.0490632 0 31
9.9939232 14.309154 -1.2201756 0 20
9.8848734 14.153017 -0.80368304 0 21
9.7869778 14.012852 -0.39740241 0 22
9.7070742 13.898447 0.00048397231 0 23
9.6491594 13.815525 0.39276895 0 24
9.5808687 13.717749 0.77992362 0 25
9.5248594 13.637554 1.1638612 0 26
9.4559002 13.538819 1.5423777 0 27
9.4031572 13.463303 1.920236 0 28
9.351634 13.389533 2.2961564 0 29
9.2977285 13.312352 2.6696582 0 30
9.2364159 13.224566 3.0391929 0 31
9.587079 14.601752 -0.81320632 0 21
9.4331951 14.367376 -0.39961469 0 22
9.3258982 14.203957 0.00048509141 0 23
9.2478466 14.085079 0.39272544 0 24
9.1891155 13.995628 0.78040791 0 25
9.1160231 13.884303 1.1621143 0 26
9.0574131 13.795036 1.54132 0 27
8.9986477 13.705532 1.9171624 0 28
8.9464445 13.626024 2.2917392 0 29
8.8940811 13.546271 2.6642849 0 30
8.8363342 13.458319 3.033386 0 31
9.0002251 14.604581 0.00048975076 0 23
8.8887033 14.423615 0.39488956 0 24
8.8086157 14.293658 0.78260821 0 25
8.7342329 14.172957 1.1648151 0 26
8.6673927 14.064496 1.543 0 27
8.6062031 13.965204 1.9181478 0 28
8.5541887 13.880801 2.2923574 0 29
8.491334 13.778808 2.6609964 0 30
8.4523191 13.715499 3.0354302 0 31
8.46208 14.656722 0.78886557 0 25
8.3672142 14.492412 1.1708528 0 26
8.2933836 14.364532 1.5491675 0 27
8.2249365 14.245979 1.9235002 0 28
8.1691742 14.149396 2.2970521 0 29
8.1156712 14.056726 2.6685905 0 30
8.0681057 13.97434 3.0402207 0 31
8.06639 14.945764 1.1882879 0 26
7.9419351 14.715167 1.561759 0 27
7.8591509 14.561782 1.9348904 0 28
7.8001561 14.452474 2.3089635 0 29
7.7437382 14.347939 2.680583 0 30
7.6885347 14.245656 3.0499883 0 31
7.5265245 14.956776 1.9578683 0 28
7.4422741 14.789351 2.3277035 0 29
7.3709188 14.647553 2.6959293 0 30
7.3110504 14.528583 3.0643799 0 31
7.0213237 15.010365 2.7244976 0 30
6.9501724 14.858256 3.0905728 0 31
6.6252236 15.291888 3.1399291 0 31
1.8660469 19.954296 -9.4888229 0 4
1.8582325 19.870733 -8.8865519 0 5
1.8533568 19.818596 -8.3136892 0 6
1.8491738 19.773865 -7.7571783 0 7
1.8444355 19.723196 -7.2105989 0 8
1.8431811 19.709784 -6.6881962 0 9
1.8401219 19.677071 -6.1685185 0 10
1.8373768 19.647717 -5.6588244 0 11
1.8350532 19.622868 -5.1584387 0 12
1.8324953 19.595516 -4.6646719 0 13
1.8319718 19.589918 -4.1822405 0 14
1.8298328 19.567045 -3.7015524 0 15
1.8280559 19.548044 -3.2267652 0 16
1.827101 19.537832 -2.7577229 0 17
1.8240104 19.504784 -2.2895346 0 18
1.822297 19.486462 -1.8268089 0 19
1.8217185 19.480276 -1.3677968 0 20
1.8201022 19.462992 -0.91004628 0 21
1.8201488 19.463491 -0.45450932 0 22
1.8193326 19.454763 0.00055782538 0 23
1.8167229 19.426857 0.45476848 0 24
1.8156857 19.415766 0.90895391 0 25
1.8146906 19.405125 1.3636384 0 26
1.8132325 19.389532 1.8188437 0 27
1.8132086 19.389277 2.2771029 0 28
1.813141 19.388554 2.7377863 0 29
1.8122119 19.378618 3.1999395 0 30
1.8099232 19.354145 3.6624265 0 31
1.2135332 18.772449 -11.156199 0 0
1.2138032 18.776627 -10.574678 0 1
1.2140893 18.781054 -10.008119 0 2
1.2138145 18.776802 -9.4508419 0 3
1.2132556 18.768158 -8.9045582 0 4
1.2138138 18.776791 -8.378293 0 5
1.212888 18.762468 -7.8528209 0 6
1.2126784 18.759228 -7.3424668 0 7
1.2126511 18.758804 -6.8424873 0 8
1.2124803 18.756163 -6.3501787 0 9
1.2119572 18.74807 -5.8639708 0 10
1.2124618 18.755877 -5.3897214 0 11
1.2127056 18.759647 -4.9203415 0 12
1.2121012 18.750299 -4.4533558 0 13
1.2116733 18.743679 -3.9925098 0 14
1.2119026 18.747227 -3.538429 0 15
1.2121408 18.750912 -3.0881701 0 16
1.2116886 18.743917 -2.6396682 0 17
1.2127148 18.75979 -2.1970952 0 18
1.2111387 18.735409 -1.7524197 0 19
1.2114296 18.73991 -1.3128309 0 20
1.210704 18.728683 -0.87372732 0 21
1.2121252 18.750669 -0.43687141 0 22
1.2113312 18.738388 0.00053606729 0 23
1.2112666 18.737389 0.43763465 0 24
1.211122 18.735151 0.87510329 0 25
1.2102489 18.721645 1.3126278 0 26
1.2108423 18.730824 1.7530718 0 27
1.2112452 18.737057 2.1955192 0 28
1.2112499 18.737129 2.6398058 0 29
1.2110935 18.734711 3.0866027 0 30
1.2107739 18.729767 3.5362432 0 31
0.66094989 18.421324 -10.931757 0 0
0.66098934 18.422422 -10.360249 0 1
0.66085136 18.418577 -9.8008194 0 2
0.66062379 18.412233 -9.253993 0 3
0.66056156 18.4105 -8.7222824 0 4
0.6609655 18.421757 -8.2080326 0 5
0.66115546 18.427053 -7.701324 0 6
0.66134411 18.43231 -7.2041144 0 7
0.6612637 18.430069 -6.7128911 0 8
0.66120881 18.428539 -6.230267 0 9
0.66134268 18.43227 -5.7568893 0 10
0.6609714 18.421923 -5.2861285 0 11
0.66135329 18.432566 -4.8275876 0 12
0.66127861 18.430485 -4.3710904 0 13
0.66119391 18.428123 -3.9196393 0 14
0.66140169 18.433916 -3.4742801 0 15
0.6613006 18.431097 -3.0311251 0 16
0.6614843 18.436218 -2.5925949 0 17
0.66170627 18.442404 -2.1568117 0 18
0.66198426 18.450151 -1.7232517 0 19
0.66165996 18.441113 -1.2900372 0 20
0.6621573 18.454975 -0.85971779 0 21
0.66233164 18.459835 -0.42947555 0 22
0.66208053 18.452833 0.0005271376 0 23
0.66242486 18.462431 0.43059137 0 24
0.66239339 18.461555 0.86108142 0 25
0.66250145 18.464567 1.2927381 0 26
0.66204095 18.451731 1.7244625 0 27
0.66266346 18.469082 2.1610012 0 28
0.66258413 18.466871 2.5979815 0 29
0.66217297 18.455412 3.0362065 0 30
0.66292793 18.476452 3.4833903 0 31
0.13099167 18.259148 -10.828828 0 0
0.13108656 18.272373 -10.269522 0 1
0.13110036 18.2743 -9.7180433 0 2
0.13106826 18.269823 -9.1767483 0 3
0.13107584 18.27088 -8.6507912 0 4
0.13113889 18.279669 -8.1396952 0 5
0.13109104 18.273001 -7.6322255 0 6
0.13115002 18.281221 -7.1406517 0 7
0.13126001 18.296553 -6.6601458 0 8
0.13127184 18.298201 -6.182384 0 9
0.13123001 18.292372 -5.7096682 0 10
0.13123748 18.293411 -5.2460117 0 11
0.13124499 18.294456 -4.7884583 0 12
0.13140181 18.316319 -4.341332 0 13
0.13137172 18.312122 -3.8925617 0 14
0.13140586 18.316883 -3.4500916 0 15
0.13143863 18.321449 -3.0112326 0 16
0.13147277 18.32621 -2.5755341 0 17
0.1314632 18.324875 -2.1417437 0 18
0.13153468 18.334839 -1.7114241 0 19
0.13150999 18.331396 -1.2815704 0 20
0.13145015 18.323055 -0.85304546 0 21
0.13152699 18.333767 -0.42627925 0 22
0.13160685 18.344898 0.00052373076 0 23
0.13169731 18.35751 0.42788002 0 24
0.13168454 18.355728 0.85561693 0 25
0.13170607 18.358728 1.2845347 0 26
0.13174209 18.36375 1.7151806 0 27
0.13180849 18.373005 2.1484325 0 28
0.13175708 18.365839 2.5821729 0 29
0.13176998 18.367638 3.0199008 0 30
0.13169117 18.356651 3.4586678 0 31
-0.39265555 18.246302 -10.823437 0 0
-0.39284226 18.254978 -10.261856 0 1
-0.39298165 18.261456 -9.713212 0 2
-0.39306796 18.265465 -9.1764479 0 3
-0.39293808 18.25943 -8.6471491 0 4
-0.39337137 18.279566 -8.141324 0 5
-0.39335737 18.278913 -7.6362667 0 6
-0.39347124 18.284206 -7.1432872 0 7
-0.39357972 18.289246 -6.6588564 0 8
-0.39395982 18.30691 -6.1865988 0 9
-0.39407134 18.312092 -5.717 0 10
-0.39402178 18.309788 -5.2517891 0 11
-0.39427394 18.321507 -4.796525 0 12
-0.39426622 18.321148 -4.3433704 0 13
-0.39453158 18.333477 -3.897903 0 14
-0.39424983 18.320385 -3.4514613 0 15
-0.39460903 18.337078 -3.0144212 0 16
-0.39460286 18.33679 -2.5775514 0 17
-0.39487547 18.349459 -2.1450584 0 18
-0.39492774 18.351887 -1.7133681 0 19
-0.3950451 18.35734 -1.2836484 0 20
-0.3952167 18.365314 -0.85518885 0 21
-0.39547768 18.377443 -0.42738268 0 22
-0.39558646 18.382498 0.00052491215 0 23
-0.39572755 18.389053 0.42870346 0 24
-0.39569232 18.387417 0.85727042 0 25
-0.39617884 18.410025 1.2883888 0 26
-0.39597386 18.400499 1.7189666 0 27
-0.3960996 18.406343 2.1527736 0 28
-0.3960039 18.401896 2.5877748 0 29
-0.39623928 18.412832 3.0279546 0 30
-0.39650938 18.425385 3.4723325 0 31
-0.92264438 18.361462 -10.902966 0 0
-0.92395544 18.387552 -10.347028 0 1
-0.92460048 18.400391 -9.7971916 0 2
-0.92388052 18.386063 -9.2465487 0 3
-0.92481601 18.40468 -8.7249117 0 4
-0.92560786 18.420439 -8.2125158 0 5
-0.92579681 18.424198 -7.7048883 0 6
-0.92627382 18.433691 -7.2091055 0 7
-0.92694432 18.447035 -6.7232218 0 8
-0.92701471 18.448435 -6.2408471 0 9
-0.92764205 18.46092 -5.7693996 0 10
-0.92722762 18.452673 -5.2982235 0 11
-0.92808473 18.46973 -4.8403101 0 12
-0.92868745 18.481724 -4.3859506 0 13
-0.92865384 18.481054 -3.9333262 0 14
-0.9294309 18.496519 -3.4882331 0 15
-0.92974192 18.50271 -3.0447822 0 16
-0.9303543 18.514896 -2.6052678 0 17
-0.9312169 18.532063 -2.1686361 0 18
-0.9311195 18.530125 -1.7317904 0 19
-0.93131214 18.533958 -1.2973332 0 20
-0.93154097 18.538511 -0.86414289 0 21
-0.93187386 18.545137 -0.43172672 0 22
-0.93223333 18.55229 0.00053030619 0 23
-0.93262756 18.560137 0.43313754 0 24
-0.93322068 18.571939 0.86676514 0 25
-0.93370432 18.581564 1.301733 0 26
-0.93388397 18.58514 1.7380037 0 27
-0.934264 18.592703 2.1768098 0 28
-0.93483728 18.604111 2.6189058 0 29
-0.93574476 18.622171 3.0655339 0 30
-0.93633866 18.633991 3.5152617 0 31
-1.4772729 18.68519 -11.115791 0 0
-1.4770929 18.682913 -10.53275 0 1
-1.4790765 18.708002 -9.9794703 0 2
-1.479606 18.714701 -9.4292965 0 3
-1.4816576 18.74065 -8.9006748 0 4
-1.4821371 18.746716 -8.373498 0 5
-1.4829153 18.756557 -7.8584409 0 6
-1.4833112 18.761564 -7.3509521 0 7
-1.4863631 18.800167 -6.864645 0 8
-1.4864014 18.800652 -6.3718042 0 9
-1.4862477 18.798706 -5.8858714 0 10
-1.4886942 18.829651 -5.4165001 0 11
-1.4896053 18.841175 -4.9468198 0 12
-1.4890401 18.834026 -4.4778538 0 13
-1.4911578 18.860813 -4.0216022 0 14
-1.4917006 18.867678 -3.5648351 0 15
-1.4935445 18.891001 -3.1144497 0 16
-1.4942499 18.899923 -2.6643827 0 17
-1.494769 18.906488 -2.2165589 0 18
-1.4954245 18.91478 -1.7710211 0 19
-1.4962057 18.92466 -1.3271406 0 20
-1.497027 18.935049 -0.88426536 0 21
-1.4989032 18.958778 -0.44217557 0 22
-1.5002445 18.975744 0.00054341735 0 23
-1.5000435 18.973202 0.44359922 0 24
-1.5018866 18.996515 0.88822621 0 25
-1.5016977 18.994125 1.3331052 0 26
-1.5042596 19.026529 1.7825838 0 27
-1.5043143 19.027222 2.2318182 0 28
-1.5065579 19.055601 2.6874418 0 29
-1.5074964 19.067469 3.1446648 0 30
-1.5089685 19.08609 3.6072333 0 31
-2.1043556 19.483978 -11.622131 0 0
-2.1106412 19.542175 -11.046771 0 1
-2.1152368 19.584726 -10.475212 0 2
-2.1205862 19.634254 -9.9191875 0 3
-2.1252234 19.677191 -9.3705835 0 4
-2.1312547 19.733034 -8.8377333 0 5
-2.1363149 19.779884 -8.3094492 0 6
-2.1447923 19.858377 -7.8015981 0 7
-2.1523349 19.928213 -7.2960868 0 8
-2.1666906 20.061131 -6.8172646 0 9
