# .PCD v0.7 - Point Cloud Data file format
VERSION 0.7
FIELDS x y z intensity ring
SIZE 4 4 4 4 2
TYPE F F F F U
COUNT 1 1 1 1 1
WIDTH 504
HEIGHT 1
VIEWPOINT 0 0 0 1 0 0 0
POINTS 504
DATA ascii
22.234217 12.206743 -15.042447 0 0
22.234489 12.206893 -14.255357 0 1
21.034481 12.346252 -14.464527 0 0
20.98777 12.318835 -13.677068 0 1
20.915932 12.27667 -12.896944 0 2
20.864698 12.246598 -12.15173 0 3
19.952059 12.493964 -13.961005 0 0
19.908516 12.466698 -13.201466 0 1
19.861404 12.437197 -12.461666 0 2
19.791227 12.393251 -11.728845 0 3
19.723373 12.350761 -11.018071 0 4
19.649874 12.304736 -10.323516 0 5
19.594618 12.270136 -9.6561975 0 6
18.987167 12.662197 -12.826195 0 1
18.882013 12.592072 -12.068931 0 2
18.840397 12.564318 -11.374358 0 3
18.773422 12.519653 -10.683712 0 4
18.683147 12.459452 -9.999361 0 5
18.610735 12.411161 -9.3430185 0 6
18.52216 12.352092 -8.6957426 0 7
18.458437 12.309597 -8.0759163 0 8
18.406334 12.27485 -7.4747601 0 9
17.941666 12.723369 -11.047668 0 3
17.893335 12.689094 -10.385825 0 4
17.830961 12.644861 -9.7334757 0 5
17.739809 12.580221 -9.0832996 0 6
17.662439 12.525354 -8.4573965 0 7
17.586739 12.471671 -7.8478947 0 8
17.492088 12.404549 -7.24507 0 9
17.419783 12.353273 -6.6655645 0 10
17.353386 12.306189 -6.100595 0 11
17.296495 12.265844 -5.549932 0 12
17.086887 12.869475 -10.12794 0 4
17.007399 12.809605 -9.4806805 0 5
16.947672 12.764621 -8.8616219 0 6
16.880062 12.713698 -8.254076 0 7
16.792078 12.64743 -7.652101 0 8
16.704266 12.581293 -7.0654006 0 9
16.63242 12.52718 -6.4991732 0 10
16.532703 12.452075 -5.935267 0 11
16.456732 12.394855 -5.3923936 0 12
16.37994 12.337016 -4.8602533 0 13
16.300652 12.277298 -4.3377404 0 14
16.251829 12.240527 -3.8321555 0 15
16.260147 12.246792 -3.3455749 0 16
16.345785 13.062736 -9.3170052 0 5
16.22151 12.963422 -8.6728802 0 6
16.131701 12.89165 -8.0657272 0 7
16.067083 12.840012 -7.4865584 0 8
15.985029 12.774438 -6.9134007 0 9
15.898906 12.705612 -6.3524141 0 10
15.821431 12.643699 -5.8077922 0 11
15.74218 12.580365 -5.2743845 0 12
15.638831 12.497774 -4.7448211 0 13
15.567512 12.440779 -4.2359099 0 14
15.488236 12.377426 -3.7343218 0 15
15.405046 12.310945 -3.2409937 0 16
15.333679 12.253912 -2.758492 0 17
15.274362 12.206508 -2.2851794 0 18
15.246333 12.184109 -1.8216993 0 19
15.479747 13.11568 -7.9246879 0 7
15.389578 13.039281 -7.3422108 0 8
15.300233 12.963581 -6.7753425 0 9
15.230933 12.904864 -6.2309322 0 10
15.146121 12.833006 -5.6927443 0 11
15.054777 12.755611 -5.1645942 0 12
14.971602 12.685139 -4.650919 0 13
14.890363 12.616306 -4.148468 0 14
14.818664 12.555557 -3.6582532 0 15
14.723709 12.475104 -3.1716652 0 16
14.652857 12.415072 -2.6989982 0 17
14.56542 12.340989 -2.2311828 0 18
14.498971 12.284687 -1.7737949 0 19
14.412695 12.211588 -1.3206197 0 20
14.351589 12.159815 -0.87570924 0 21
14.309014 12.123741 -0.43605158 0 22
14.30904 12.123763 0.00053541304 0 23
14.818546 13.30422 -7.2489491 0 8
14.686919 13.186045 -6.6685786 0 9
14.601659 13.109497 -6.1248865 0 10
14.526512 13.042029 -5.5982323 0 11
14.424185 12.95016 -5.0736728 0 12
14.348042 12.881797 -4.5701704 0 13
14.277804 12.818737 -4.0786195 0 14
14.1904 12.740266 -3.5919368 0 15
14.120062 12.677115 -3.1187174 0 16
14.027556 12.594064 -2.6493032 0 17
13.959603 12.533054 -2.1925755 0 18
13.861789 12.445235 -1.7388207 0 19
13.792484 12.383013 -1.2958192 0 20
13.728294 12.325383 -0.85890639 0 21
13.651591 12.256518 -0.42656058 0 22
13.583922 12.195765 0.00052116223 0 23
13.512233 12.131401 0.42324352 0 24
13.454572 12.079632 0.84281564 0 25
13.414883 12.043999 1.2613775 0 26
14.044293 13.356266 -6.0493817 0 10
13.951512 13.268031 -5.5211062 0 11
13.852082 13.173471 -5.0033569 0 12
13.775826 13.100951 -4.5058084 0 13
13.693629 13.022781 -4.01685 0 14
13.60145 12.935118 -3.535367 0 15
13.525307 12.862704 -3.0676217 0 16
13.44461 12.785961 -2.6074326 0 17
13.382605 12.726994 -2.1584272 0 18
13.294534 12.643237 -1.7124738 0 19
13.208195 12.561128 -1.2742676 0 20
13.135994 12.492464 -0.84393203 0 21
13.073884 12.433397 -0.41948587 0 22
13.001831 12.364874 0.00051223295 0 23
12.917815 12.284974 0.41549668 0 24
12.844885 12.215616 0.82624376 0 25
12.784033 12.157746 1.2343585 0 26
12.710607 12.087917 1.6382681 0 27
12.651707 12.031902 2.041554 0 28
12.595146 11.978113 2.4437006 0 29
12.566579 11.950945 2.8511934 0 30
13.439577 13.536304 -5.4699936 0 11
13.321177 13.41705 -4.9486346 0 12
13.215217 13.310328 -4.4455523 0 13
13.146666 13.241283 -3.9662406 0 14
13.056873 13.150845 -3.4904778 0 15
12.989008 13.082491 -3.0298915 0 16
12.902684 12.995546 -2.5736017 0 17
12.842577 12.935006 -2.1303222 0 18
12.75516 12.84696 -1.6897914 0 19
12.673937 12.765152 -1.2575495 0 20
12.609324 12.700074 -0.83316827 0 21
12.535803 12.626024 -0.41367692 0 22
12.463394 12.553094 0.00050500501 0 23
12.38346 12.472585 0.40965369 0 24
12.304549 12.393106 0.8140294 0 25
12.237481 12.325555 1.2152395 0 26
12.155983 12.24347 1.6114067 0 27
12.106574 12.193706 2.0092289 0 28
12.040099 12.126753 2.4025433 0 29
11.965093 12.051207 2.792043 0 30
11.905159 11.990842 3.1835904 0 31
12.903687 13.764734 -4.9382558 0 12
12.742479 13.59277 -4.4159312 0 13
12.624964 13.467413 -3.9238329 0 14
12.543743 13.380773 -3.4545364 0 15
12.46876 13.300785 -2.9963415 0 16
12.389478 13.216212 -2.5458405 0 17
12.309169 13.130545 -2.103482 0 18
12.243874 13.060892 -1.671025 0 19
12.15478 12.965854 -1.2424462 0 20
12.092809 12.899748 -0.82316148 0 21
12.013952 12.815629 -0.40842465 0 22
11.94016 12.736913 0.00049840967 0 23
11.871572 12.663748 0.40457594 0 24
11.798612 12.585918 0.80412251 0 25
11.729788 12.512503 1.1999881 0 26
11.674025 12.453018 1.5942361 0 27
11.59481 12.368518 1.9823883 0 28
11.527848 12.297088 2.3697708 0 29
11.459783 12.22448 2.7548587 0 30
11.404121 12.165105 3.1416717 0 31
12.190778 13.775829 -3.9101501 0 14
12.087158 13.658736 -3.4353302 0 15
11.989289 13.548143 -2.97333 0 16
11.901918 13.449412 -2.5239275 0 17
11.819607 13.356399 -2.0844657 0 18
11.737958 13.264133 -1.6532493 0 19
11.674741 13.192697 -1.2315708 0 20
11.601076 13.109454 -0.81496274 0 21
11.531587 13.03093 -0.40457287 0 22
11.46429 12.954883 0.00049386144 0 23
11.396591 12.878382 0.40081912 0 24
11.324501 12.796919 0.79651153 0 25
11.256111 12.719637 1.1883841 0 26
11.19373 12.649145 1.5775696 0 27
11.131739 12.579094 1.9641278 0 28
11.064727 12.503368 2.3473642 0 29
10.993707 12.423115 2.7273996 0 30
10.928082 12.348957 3.1068804 0 31
11.700553 14.012054 -3.4383245 0 15
11.548513 13.829978 -2.9612286 0 16
11.44628 13.707549 -2.509692 0 17
11.348176 13.590064 -2.0692549 0 18
11.284787 13.514153 -1.64337 0 19
11.208037 13.42224 -1.2224691 0 20
11.13994 13.34069 -0.80913043 0 21
11.064578 13.25044 -0.40136427 0 22
10.986441 13.156866 0.00048934051 0 23
10.933628 13.093619 0.39758861 0 24
10.864393 13.010707 0.79008645 0 25
10.801685 12.935611 1.1791149 0 26
10.736559 12.857618 1.5644978 0 27
10.677431 12.78681 1.9479135 0 28
10.616219 12.713505 2.3286583 0 29
10.552632 12.637357 2.7068338 0 30
10.484534 12.555806 3.0819523 0 31
11.052204 14.035154 -2.5105674 0 17
10.935797 13.88733 -2.065881 0 18
10.844815 13.771792 -1.63618 0 19
10.75689 13.660137 -1.2155198 0 20
10.687162 13.571589 -0.80420178 0 21
10.611833 13.475929 -0.39880559 0 22
10.545382 13.391544 0.00048661273 0 23
10.489089 13.320056 0.39516127 0 24
10.419812 13.232082 0.78504765 0 25
10.366873 13.164856 1.1724095 0 26
10.295256 13.073909 1.5542253 0 27
10.236641 12.999474 1.934761 0 28
10.174344 12.920363 2.3121142 0 29
10.120777 12.852339 2.6895623 0 30
10.053667 12.767116 3.0617392 0 31
10.607836 14.296288 -2.0805748 0 18
10.456202 14.091929 -1.6378893 0 19
10.35404 13.954246 -1.2147497 0 20
10.261161 13.829072 -0.80167961 0 21
10.183002 13.723736 -0.39732724 0 22
10.125091 13.645688 0.00048508935 0 23
10.059401 13.557158 0.39346892 0 24
9.986166 13.458459 0.78115386 0 25
9.9374418 13.392792 1.1668307 0 26
9.8712835 13.30363 1.5472202 0 27
9.8158531 13.228926 1.9261922 0 28
9.7595968 13.153108 2.302695 0 29
9.7026453 13.076354 2.6770689 0 30
9.6452179 12.99896 3.0497024 0 31
10.004963 14.32496 -1.2215235 0 20
9.8744612 14.138108 -0.80283648 0 21
9.7889137 14.015624 -0.39748102 0 22
9.7034006 13.893188 0.00048378916 0 23
9.6437082 13.80772 0.39254704 0 24
9.5773239 13.712673 0.77963507 0 25
9.5170393 13.626357 1.1629056 0 26
9.4580593 13.541911 1.54273 0 27
9.3981113 13.456079 1.9192057 0 28
9.3413076 13.374748 2.2936208 0 29
9.2953377 13.308929 2.6689718 0 30
9.2288485 13.21373 3.0367029 0 31
9.5851936 14.598881 -0.81304646 0 21
9.4220638 14.350424 -0.39914316 0 22
9.3306742 14.211231 0.00048533987 0 23
9.2439461 14.079138 0.3925598 0 24
9.1819687 13.984743 0.77980089 0 25
9.1175594 13.886642 1.16231 0 26
9.0646439 13.806049 1.5425504 0 27
9.0035458 13.712993 1.918206 0 28
8.9330893 13.605683 2.2883182 0 29
8.8831024 13.529551 2.6609962 0 30
8.8370924 13.459473 3.0336461 0 31
9.0037441 14.610291 0.00048994226 0 23
8.8834782 14.415135 0.3946574 0 24
8.7974501 14.275539 0.78161615 0 25
8.7336817 14.172064 1.1647415 0 26
8.6643772 14.059603 1.5424631 0 27
8.605072 13.963369 1.9178958 0 28
8.5520296 13.877298 2.291779 0 29
8.4995041 13.792065 2.6635566 0 30
8.4474516 13.7076 3.0336819 0 31
8.4592352 14.651794 0.78860039 0 25
8.361104 14.481828 1.1699977 0 26
8.2903385 14.359259 1.5485988 0 27
8.2315187 14.25738 1.9250394 0 28
8.1659565 14.143823 2.2961473 0 29
8.1101723 14.047201 2.6667826 0 30
8.0621004 13.96394 3.0379577 0 31
8.059247 14.932528 1.1872356 0 26
7.9347806 14.701912 1.5603521 0 27
7.8578596 14.559388 1.9345723 0 28
7.7989135 14.450171 2.3085957 0 29
7.7381463 14.337579 2.6786473 0 30
7.6878562 14.244399 3.0497191 0 31
7.5316043 14.96687 1.9591898 0 28
7.4328613 14.770647 2.3247595 0 29
7.3694215 14.644578 2.6953816 0 30
7.3067942 14.520125 3.0625961 0 31
7.0292172 15.027241 2.7275605 0 30
6.9475713 14.852695 3.0894163 0 31
6.6178765 15.274931 3.1364472 0 31
1.8682762 19.978134 -9.5001583 0 4
1.8619933 19.91095 -8.9045372 0 5
1.8539402 19.824835 -8.3163061 0 6
1.850081 19.783566 -7.7609839 0 7
1.8479074 19.760324 -7.2241726 0 8
1.8431526 19.709478 -6.6880932 0 9
1.8418919 19.695997 -6.1744518 0 10
1.837549 19.649557 -5.6593547 0 11
1.8344177 19.616074 -5.1566525 0 12
1.8336983 19.608381 -4.6677341 0 13
1.831731 19.587343 -4.1816907 0 14
1.8300843 19.569735 -3.7020612 0 15
1.8290129 19.558277 -3.2284541 0 16
1.8267299 19.533865 -2.7571626 0 17
1.8253603 19.51922 -2.291229 0 18
1.8235378 19.499731 -1.8280529 0 19
1.8225546 19.489218 -1.3684247 0 20
1.8210404 19.473024 -0.91051537 0 21
1.818814 19.449219 -0.45417601 0 22
1.8170455 19.430305 0.00055712415 0 23
1.818059 19.441143 0.45510295 0 24
1.8147414 19.405666 0.90848112 0 25
1.816548 19.424986 1.3650341 0 26
1.8148437 19.406761 1.8204598 0 27
1.8140495 19.39827 2.2781591 0 28
1.812904 19.386019 2.7374282 0 29
1.8110423 19.366112 3.1978743 0 30
1.8099455 19.354383 3.6624718 0 31
1.2149218 18.793932 -11.168966 0 0
1.2147465 18.79122 -10.582898 0 1
1.2138109 18.776747 -10.005823 0 2
1.2140733 18.780806 -9.452857 0 3
1.2126485 18.758766 -8.9001017 0 4
1.2131832 18.767036 -8.3739405 0 5
1.2132881 18.768658 -7.8554111 0 6
1.2124697 18.755999 -7.3412027 0 7
1.212688 18.759375 -6.8426952 0 8
1.2129869 18.764 -6.3528318 0 9
1.213184 18.767048 -5.8699069 0 10
1.2122648 18.752829 -5.3888454 0 11
1.2113711 18.739004 -4.9149265 0 12
1.212572 18.757582 -4.4550853 0 13
1.2123471 18.754103 -3.9947302 0 14
1.2127984 18.761084 -3.541044 0 15
1.2119511 18.747978 -3.087687 0 16
1.2116835 18.743837 -2.639657 0 17
1.2118299 18.746101 -2.195492 0 18
1.2119402 18.747807 -1.7535794 0 19
1.2122308 18.752302 -1.3136991 0 20
1.2115324 18.741499 -0.8743251 0 21
1.2117223 18.744436 -0.43672615 0 22
1.2107779 18.729828 0.00053582247 0 23
1.2106351 18.727617 0.43740642 0 24
1.2116535 18.743374 0.87548733 0 25
1.2108873 18.73152 1.3133202 0 26
1.2110276 18.73369 1.7533401 0 27
1.2101765 18.720526 2.1935821 0 28
1.2112815 18.737619 2.6398747 0 29
1.2116878 18.743902 3.0881174 0 30
1.2108256 18.730564 3.5363936 0 31
0.66100234 18.422785 -10.932625 0 0
0.66111803 18.42601 -10.362266 0 1
0.66088104 18.419403 -9.801259 0 2
0.66155773 18.438265 -9.2670765 0 3
0.66127384 18.430351 -8.7316866 0 4
0.66097891 18.422131 -8.2081995 0 5
0.66132468 18.431768 -7.7032948 0 6
0.66100192 18.422771 -7.2003865 0 7
0.66095537 18.421474 -6.7097611 0 8
0.66152751 18.437422 -6.2332702 0 9
0.66198951 18.450298 -5.7625198 0 10
0.66143733 18.434908 -5.2898545 0 11
0.6611976 18.428226 -4.8264508 0 12
0.66146207 18.435596 -4.3723025 0 13
0.6618132 18.445383 -3.9233105 0 14
0.66160548 18.439594 -3.4753504 0 15
0.66106832 18.424623 -3.0300603 0 16
0.66210806 18.453602 -2.5950396 0 17
0.66188323 18.447336 -2.1573884 0 18
0.66183949 18.446117 -1.7228748 0 19
0.66235793 18.460566 -1.291398 0 20
0.66226661 18.458021 -0.85985976 0 21
0.66210705 18.453575 -0.42932993 0 22
0.66217881 18.455574 0.00052721589 0 23
0.66243637 18.462751 0.43059886 0 24
0.66206259 18.452333 0.86065131 0 25
0.66200417 18.450706 1.2917677 0 26
0.6621725 18.455397 1.7248052 0 27
0.66194952 18.449184 2.158673 0 28
0.66208762 18.453032 2.5960345 0 29
0.66235352 18.460443 3.0370343 0 30
0.66276336 18.471867 3.4825258 0 31
0.13099578 18.25972 -10.829167 0 0
0.13104528 18.266621 -10.266288 0 1
0.13095121 18.253508 -9.7069874 0 2
0.13107868 18.271276 -9.1774788 0 3
0.13113374 18.27895 -8.6546125 0 4
0.13105832 18.268436 -8.1346941 0 5
0.13118407 18.285967 -7.6376414 0 6
0.13121629 18.290457 -7.1442595 0 7
0.13123602 18.293207 -6.6589284 0 8
0.13117163 18.284231 -6.1776643 0 9
0.1312906 18.300816 -5.7123041 0 10
0.13115242 18.281555 -5.2426119 0 11
0.1312404 18.293819 -4.7882915 0 12
0.13133264 18.306675 -4.3390465 0 13
0.13134517 18.308424 -3.8917751 0 14
0.13139451 18.315298 -3.4497933 0 15
0.13145588 18.323854 -3.0116279 0 16
0.13140331 18.316526 -2.5741732 0 17
0.13144086 18.321762 -2.1413801 0 18
0.13149516 18.32933 -1.7109101 0 19
0.13156126 18.338543 -1.28207 0 20
0.13150468 18.330658 -0.8533994 0 21
0.13145757 18.324089 -0.42605424 0 22
0.13156372 18.338886 0.00052355911 0 23
0.13165633 18.351795 0.42774686 0 24
0.13166641 18.353199 0.85549903 0 25
0.13167278 18.354088 1.28421 0 26
0.13174951 18.364784 1.7152771 0 27
0.13167754 18.354753 2.1462982 0 28
0.1318071 18.372812 2.5831532 0 29
0.13160697 18.344915 3.016165 0 30
0.13178025 18.36907 3.4610074 0 31
-0.392533 18.240606 -10.820059 0 0
-0.39297423 18.26111 -10.265304 0 1
-0.39291772 18.258484 -9.7116318 0 2
-0.39327741 18.275198 -9.1813383 0 3
-0.39317831 18.270594 -8.6524353 0 4
-0.39342952 18.282267 -8.1425276 0 5
-0.39356413 18.288523 -7.6402802 0 6
-0.39363104 18.291632 -7.1461878 0 7
-0.39372492 18.295994 -6.6613131 0 8
-0.39360383 18.290367 -6.1810083 0 9
-0.39397529 18.307629 -5.7156062 0 10
-0.39414403 18.31547 -5.2534184 0 11
-0.39434668 18.324886 -4.79741 0 12
-0.39403188 18.310259 -4.3407888 0 13
-0.39453965 18.333853 -3.8979826 0 14
-0.39453855 18.333803 -3.4539893 0 15
-0.39470896 18.341721 -3.0151846 0 16
-0.39474425 18.343361 -2.5784748 0 17
-0.3949365 18.352295 -2.14539 0 18
-0.39480785 18.346317 -1.7128479 0 19
-0.39507136 18.358561 -1.2837336 0 20
-0.39512551 18.361078 -0.8549915 0 21
-0.39543563 18.375488 -0.42733723 0 22
-0.39511138 18.36042 0.00052428176 0 23
-0.39573866 18.38957 0.4287155 0 24
-0.39601389 18.402361 0.85796708 0 25
-0.39571777 18.388599 1.2868894 0 26
-0.39592746 18.398344 1.7187651 0 27
-0.39617154 18.409685 2.1531646 0 28
-0.39628589 18.414999 2.5896173 0 29
-0.39598536 18.401033 3.0260143 0 30
-0.39682198 18.439911 3.4750698 0 31
-0.92311817 18.37089 -10.908565 0 0
-0.92382139 18.384886 -10.345527 0 1
-0.92365205 18.381516 -9.7871418 0 2
-0.92409992 18.390429 -9.248744 0 3
-0.92403233 18.389084 -8.7175179 0 4
-0.92531723 18.414654 -8.2099371 0 5
-0.92599642 18.428171 -7.7065496 0 6
-0.92569727 18.422216 -7.204618 0 7
-0.92626685 18.433552 -6.718308 0 8
-0.92681122 18.444386 -6.2394772 0 9
-0.92648995 18.437992 -5.7622342 0 10
-0.92767709 18.461617 -5.3007917 0 11
-0.92768562 18.461786 -4.8382282 0 12
-0.92842013 18.476404 -4.3846884 0 13
-0.92903322 18.488605 -3.9349332 0 14
-0.92919451 18.491816 -3.4873459 0 15
-0.929627 18.500422 -3.0444057 0 16
-0.92965734 18.501026 -2.6033161 0 17
-0.93039435 18.515694 -2.1667206 0 18
-0.93087673 18.525293 -1.7313389 0 19
-0.93141741 18.536053 -1.2974799 0 20
-0.93130904 18.533897 -0.86392778 0 21
-0.93187708 18.5452 -0.43172821 0 22
-0.93247849 18.557171 0.00053044572 0 23
-0.9328441 18.564445 0.43323812 0 24
-0.93372989 18.582073 0.8672381 0 25
-0.93358386 18.579168 1.3015651 0 26
-0.93384886 18.584442 1.7379385 0 27
-0.93440104 18.59543 2.177129 0 28
-0.93504083 18.608162 2.6194761 0 29
-0.93534249 18.614166 3.0642161 0 30
-0.93593997 18.626057 3.5137649 0 31
-1.4758464 18.667147 -11.105058 0 0
-1.4771323 18.683411 -10.533031 0 1
-1.478341 18.6987 -9.9745073 0 2
-1.4793783 18.711821 -9.427846 0 3
-1.4814879 18.738503 -8.8996553 0 4
-1.4818003 18.742455 -8.3715954 0 5
-1.483264 18.760967 -7.8602881 0 6
-1.482424 18.750343 -7.3465557 0 7
-1.4840487 18.770895 -6.8539567 0 8
-1.4860201 18.795828 -6.3701692 0 9
-1.4867551 18.805126 -5.8878808 0 10
-1.4878843 18.819407 -5.4135537 0 11
-1.4900951 18.84737 -4.9484463 0 12
-1.4892478 18.836655 -4.4784784 0 13
-1.4903928 18.851137 -4.0195389 0 14
-1.4923332 18.875679 -3.5663469 0 15
-1.4918259 18.869263 -3.1108661 0 16
-1.4942958 18.900505 -2.6644645 0 17
-1.4947875 18.906721 -2.2165864 0 18
-1.4951262 18.911007 -1.7706679 0 19
-1.4965932 18.929562 -1.3274844 0 20
-1.4981955 18.949827 -0.88495559 0 21
-1.4987894 18.95734 -0.44214204 0 22
-1.499092 18.961166 0.00054299989 0 23
-1.5017382 18.994638 0.44410041 0 24
-1.5024725 19.003925 0.88857275 0 25
-1.5023504 19.002382 1.3336847 0 26
-1.5041773 19.025488 1.7824862 0 27
-1.5044365 19.028769 2.2319994 0 28
-1.5065334 19.055288 2.687398 0 29
-1.5073082 19.06509 3.1442726 0 30
-1.5089425 19.08576 3.6071711 0 31
-2.1048355 19.488422 -11.624783 0 0
-2.1097903 19.534298 -11.042317 0 1
-2.1139629 19.572931 -10.468904 0 2
-2.1177106 19.60763 -9.9057369 0 3
-2.1244068 19.66963 -9.3669825 0 4
-2.1288457 19.71073 -8.8277435 0 5
-2.1343627 19.76181 -8.301857 0 6
-2.1425855 19.837944 -7.7935705 0 7
-2.1500628 19.907177 -7.2883849 0 8
-2.1600914 20.000031 -6.7965012 0 9
