# .PCD v0.7 - Point Cloud Data file format
VERSION 0.7
FIELDS x y z intensity ring
SIZE 4 4 4 4 2
TYPE F F F F U
COUNT 1 1 1 1 1
WIDTH 504
HEIGHT 1
VIEWPOINT 0 0 0 1 0 0 0
POINTS 504
DATA ascii
22.228319 12.203506 -15.038457 0 0
22.240202 12.21003 -14.259021 0 1
21.034739 12.346404 -14.464704 0 0
20.992517 12.321622 -13.680162 0 1
20.911015 12.273784 -12.893912 0 2
20.852497 12.239437 -12.144623 0 3
19.945114 12.489615 -13.956146 0 0
19.895699 12.458672 -13.192966 0 1
19.854929 12.433142 -12.457603 0 2
19.786911 12.390549 -11.726287 0 3
19.713209 12.344398 -11.012394 0 4
19.641584 12.299545 -10.31916 0 5
19.603632 12.27578 -9.6606398 0 6
18.979273 12.656933 -12.820862 0 1
18.877962 12.58937 -12.066341 0 2
18.830938 12.558011 -11.368649 0 3
18.767029 12.51539 -10.680074 0 4
18.680935 12.457975 -9.9981766 0 5
18.61241 12.412278 -9.3438597 0 6
18.527361 12.35556 -8.698184 0 7
18.458281 12.309492 -8.0758476 0 8
18.412867 12.279207 -7.4774132 0 9
17.950552 12.72967 -11.053141 0 3
17.888304 12.685526 -10.382905 0 4
17.826477 12.641682 -9.7310286 0 5
17.742996 12.58248 -9.0849314 0 6
17.654789 12.519928 -8.4537334 0 7
17.566782 12.457519 -7.8389888 0 8
17.499695 12.409944 -7.2482204 0 9
17.412075 12.347808 -6.6626158 0 10
17.333511 12.292094 -6.0936079 0 11
17.298485 12.267256 -5.550571 0 12
17.090784 12.87241 -10.13025 0 4
17.01169 12.812839 -9.4830732 0 5
16.945801 12.763211 -8.8606424 0 6
16.877634 12.711869 -8.2528887 0 7
16.793684 12.648641 -7.6528335 0 8
16.710615 12.586075 -7.0680857 0 9
16.625078 12.52165 -6.4963045 0 10
16.53754 12.455718 -5.9370031 0 11
16.456123 12.394398 -5.3921943 0 12
16.378164 12.335679 -4.8597264 0 13
16.301157 12.277679 -4.3378749 0 14
16.25037 12.239429 -3.8318114 0 15
16.264587 12.250136 -3.3464885 0 16
16.341072 13.05897 -9.3143187 0 5
16.208532 12.953051 -8.6659412 0 6
16.13752 12.896301 -8.0686369 0 7
16.061577 12.83561 -7.4839926 0 8
15.979996 12.770416 -6.9112239 0 9
15.892436 12.700442 -6.3498292 0 10
15.810368 12.634857 -5.803731 0 11
15.732581 12.572694 -5.2711682 0 12
15.638435 12.497458 -4.7447009 0 13
15.559091 12.43405 -4.2336187 0 14
15.488315 12.377489 -3.7343409 0 15
15.408802 12.313946 -3.2417839 0 16
15.323772 12.245995 -2.7567098 0 17
15.276794 12.208452 -2.2855434 0 18
15.235526 12.175472 -1.820408 0 19
15.472774 13.109772 -7.9211183 0 7
15.398283 13.046657 -7.3463635 0 8
15.297846 12.961558 -6.7742858 0 9
15.230341 12.904363 -6.23069 0 10
15.146832 12.833607 -5.6930113 0 11
15.065088 12.764347 -5.1681314 0 12
14.981367 12.693412 -4.6539521 0 13
14.890526 12.616445 -4.1485133 0 14
14.809095 12.54745 -3.6558909 0 15
14.727136 12.478007 -3.1724033 0 16
14.64452 12.408008 -2.6974626 0 17
14.576516 12.35039 -2.2328827 0 18
14.493434 12.279996 -1.7731175 0 19
14.423857 12.221045 -1.3216425 0 20
14.360526 12.167386 -0.87625456 0 21
14.315445 12.12919 -0.43624753 0 22
14.306883 12.121936 0.00053533231 0 23
14.806141 13.293083 -7.2428808 0 8
14.695466 13.193718 -6.6724591 0 9
14.596669 13.105017 -6.1227932 0 10
14.52592 13.041498 -5.5980043 0 11
14.441113 12.965358 -5.079627 0 12
14.359804 12.892358 -4.5739174 0 13
14.267898 12.809844 -4.0757895 0 14
14.195665 12.744993 -3.5932696 0 15
14.113824 12.671515 -3.1173396 0 16
14.033103 12.599043 -2.6503506 0 17
13.965058 12.537951 -2.1934323 0 18
13.869269 12.451951 -1.7397591 0 19
13.788334 12.379287 -1.2954292 0 20
13.722444 12.32013 -0.85854036 0 21
13.650822 12.255827 -0.42653653 0 22
13.58041 12.192611 0.00052102742 0 23
13.51202 12.13121 0.42323691 0 24
13.453347 12.078533 0.84273899 0 25
13.408133 12.037938 1.2607428 0 26
14.043014 13.355049 -6.0488305 0 10
13.940971 13.258006 -5.5169349 0 11
13.870354 13.190848 -5.0099568 0 12
13.764521 13.090199 -4.5021105 0 13
13.682639 13.012329 -4.0136261 0 14
13.602018 12.935658 -3.5355148 0 15
13.521659 12.859236 -3.0667946 0 16
13.446533 12.78779 -2.6078055 0 17
13.378505 12.723095 -2.1577659 0 18
13.298975 12.647461 -1.7130458 0 19
13.221602 12.573879 -1.2755611 0 20
13.138404 12.494756 -0.84408683 0 21
13.066294 12.426179 -0.41924232 0 22
12.999521 12.362677 0.00051214191 0 23
12.920097 12.287144 0.41557008 0 24
12.851209 12.22163 0.82665056 0 25
12.784842 12.158516 1.2344368 0 26
12.713922 12.091068 1.6386954 0 27
12.664209 12.043792 2.0435715 0 28
12.603845 11.986384 2.4453881 0 29
12.577068 11.96092 2.8535733 0 30
13.44131 13.538049 -5.4706988 0 11
13.317613 13.413461 -4.9473109 0 12
13.233632 13.328876 -4.4517474 0 13
13.150259 13.244903 -3.9673247 0 14
13.061289 13.155293 -3.4916582 0 15
12.978406 13.071813 -3.0274184 0 16
12.903203 12.996069 -2.5737054 0 17
12.830127 12.922466 -2.128257 0 18
12.747327 12.83907 -1.6887537 0 19
12.671635 12.762834 -1.2573211 0 20
12.604732 12.695449 -0.83286482 0 21
12.533015 12.623217 -0.41358492 0 22
12.451663 12.541279 0.00050452974 0 23
12.391222 12.480402 0.40991047 0 24
12.3081 12.396683 0.8142643 0 25
12.237515 12.32559 1.215243 0 26
12.175419 12.263046 1.6139832 0 27
12.094375 12.181419 2.0072043 0 28
12.027177 12.113738 2.3999648 0 29
11.964879 12.050991 2.7919929 0 30
11.894204 11.979808 3.180661 0 31
12.899846 13.760637 -4.9367857 0 12
12.746512 13.597072 -4.4173288 0 13
12.638973 13.482357 -3.9281871 0 14
12.54356 13.380577 -3.4544861 0 15
12.468141 13.300125 -2.9961927 0 16
12.385056 13.211495 -2.5449319 0 17
12.307602 13.128873 -2.1032143 0 18
12.234474 13.050866 -1.6697422 0 19
12.161298 12.972807 -1.2431124 0 20
12.08302 12.889305 -0.82249516 0 21
12.021964 12.824175 -0.40869701 0 22
11.941618 12.738468 0.00049847056 0 23
11.871481 12.663651 0.40457284 0 24
11.800283 12.587703 0.80423647 0 25
11.729255 12.511934 1.1999335 0 26
11.668909 12.447561 1.5935374 0 27
11.606031 12.380487 1.9843067 0 28
11.530906 12.300349 2.3703995 0 29
11.469307 12.234639 2.7571483 0 30
11.392618 12.152834 3.1385024 0 31
12.196057 13.781796 -3.9118438 0 14
12.079206 13.64975 -3.4330699 0 15
11.984406 13.542625 -2.9721193 0 16
11.898088 13.445085 -2.5231152 0 17
11.812469 13.348333 -2.0832069 0 18
11.743863 13.270806 -1.654081 0 19
11.664404 13.181016 -1.2304804 0 20
11.595198 13.102811 -0.8145498 0 21
11.529174 13.028203 -0.40448821 0 22
11.460488 12.950587 0.00049369771 0 23
11.384938 12.865214 0.40040931 0 24
11.325523 12.798074 0.79658335 0 25
11.255631 12.719095 1.1883334 0 26
11.192451 12.6477 1.5773894 0 27
11.131721 12.579074 1.9641247 0 28
11.054113 12.491375 2.3451126 0 29
10.988247 12.416945 2.7260451 0 30
10.916747 12.336148 3.103658 0 31
11.700402 14.011874 -3.4382801 0 15
11.553839 13.836355 -2.962594 0 16
11.442717 13.703281 -2.5089107 0 17
11.346408 13.587947 -2.0689323 0 18
11.277886 13.505888 -1.642365 0 19
11.200696 13.413448 -1.2216684 0 20
11.124851 13.322619 -0.80803448 0 21
11.061581 13.24685 -0.40125555 0 22
10.996557 13.168981 0.0004897911 0 23
10.92599 13.084473 0.39731085 0 24
10.863348 13.009456 0.79001045 0 25
10.805995 12.940772 1.1795853 0 26
10.733251 12.853657 1.5640157 0 27
10.67415 12.78288 1.947315 0 28
10.611986 12.708436 2.3277299 0 29
10.547398 12.631088 2.7054911 0 30
10.470009 12.53841 3.0776825 0 31
11.057379 14.041726 -2.5117428 0 17
10.935707 13.887216 -2.0658638 0 18
10.843585 13.77023 -1.6359944 0 19
10.771427 13.678597 -1.2171625 0 20
10.681495 13.564392 -0.80377531 0 21
10.607472 13.470391 -0.39864171 0 22
10.543407 13.389035 0.00048652157 0 23
10.479847 13.30832 0.39481309 0 24
10.423594 13.236884 0.7853325 0 25
10.367763 13.165985 1.1725101 0 26
10.293243 13.071353 1.5539215 0 27
10.243574 13.008279 1.9360715 0 28
10.17666 12.923304 2.3126404 0 29
10.116113 12.846416 2.6883225 0 30
10.056521 12.770741 3.0626085 0 31
10.595855 14.280142 -2.0782249 0 18
10.449289 14.082615 -1.6368067 0 19
10.349581 13.948236 -1.2142266 0 20
10.27509 13.847844 -0.80276781 0 21
10.185432 13.727012 -0.39742211 0 22
10.114776 13.631787 0.00048459516 0 23
10.049895 13.544347 0.3930971 0 24
9.9877863 13.460643 0.78128064 0 25
9.9265718 13.378142 1.1655544 0 26
9.8692436 13.300881 1.5469005 0 27
9.8193979 13.233703 1.9268876 0 28
9.7575026 13.150287 2.3022013 0 29
9.7000284 13.072827 2.676347 0 30
9.6299686 12.978407 3.0448806 0 31
9.9896708 14.303064 -1.2196565 0 20
9.8786497 14.144107 -0.80317706 0 21
9.7928505 14.02126 -0.39764085 0 22
9.7078848 13.899608 0.00048401274 0 23
9.6382151 13.799855 0.39232343 0 24
9.5779572 13.713578 0.77968651 0 25
9.5168333 13.626062 1.1628805 0 26
9.4664898 13.553982 1.5441051 0 27
9.4089622 13.471615 1.9214215 0 28
9.3486605 13.385276 2.2954264 0 29
9.2920895 13.304277 2.6680388 0 30
9.2388048 13.227986 3.039979 0 31
9.5819511 14.593943 -0.81277138 0 21
9.4266253 14.35737 -0.39933637 0 22
9.3269138 14.205503 0.00048514424 0 23
9.249814 14.088076 0.39280897 0 24
9.1779957 13.978691 0.77946341 0 25
9.115447 13.883426 1.1620407 0 26
9.0536394 13.789289 1.5406779 0 27
8.9908352 13.693634 1.9154981 0 28
8.9430819 13.620903 2.2908778 0 29
8.8928041 13.544326 2.6639023 0 30
8.8311729 13.450458 3.0316141 0 31
8.9946442 14.595524 0.00048944703 0 23
8.8792772 14.408319 0.39447078 0 24
8.8049021 14.287631 0.78227824 0 25
8.7322121 14.169678 1.1645454 0 26
8.6647825 14.060261 1.5425353 0 27
8.6040182 13.961659 1.9176608 0 28
8.5483236 13.871284 2.2907858 0 29
8.505764 13.802222 2.6655183 0 30
8.4470577 13.706962 3.0335407 0 31
8.4549217 14.644324 0.78819835 0 25
8.3596401 14.479292 1.1697928 0 26
8.2865467 14.352691 1.5478904 0 27
8.2251787 14.246399 1.9235568 0 28
8.1680164 14.14739 2.2967267 0 29
8.114336 14.054413 2.6681516 0 30
8.0649147 13.968814 3.0390182 0 31
8.0557556 14.92606 1.1867213 0 26
7.9410033 14.713442 1.5615758 0 27
7.8642325 14.571197 1.9361414 0 28
7.7989979 14.450327 2.3086207 0 29
7.7372561 14.33593 2.6783392 0 30
7.6821623 14.23385 3.0474603 0 31
7.5348268 14.973273 1.9600279 0 28
7.4356408 14.77617 2.3256288 0 29
7.3721995 14.650099 2.6963978 0 30
7.309648 14.525796 3.0637922 0 31
7.0225358 15.012957 2.724968 0 30
6.9473753 14.852277 3.089329 0 31
6.6267753 15.29547 3.1406646 0 31
1.8771907 20.07346 -9.5454893 0 4
1.8613192 19.90374 -8.9013138 0 5
1.8569549 19.857071 -8.3298292 0 6
1.851707 19.800953 -7.7678051 0 7
1.8480183 19.761509 -7.224606 0 8
1.8443218 19.721981 -6.6923356 0 9
1.8422321 19.699636 -6.1755924 0 10
1.8386078 19.660879 -5.6626158 0 11
1.8358228 19.6311 -5.1606021 0 12
1.833081 19.60178 -4.666163 0 13
1.832065 19.590916 -4.1824532 0 14
1.8307151 19.576479 -3.703337 0 15
1.8296026 19.564585 -3.2294953 0 16
1.827431 19.541363 -2.7582209 0 17
1.8257885 19.523798 -2.2917666 0 18
1.8236266 19.500681 -1.8281419 0 19
1.8234531 19.498825 -1.3690993 0 20
1.821282 19.475609 -0.91063613 0 21
1.8197521 19.459249 -0.45441025 0 22
1.8188785 19.449907 0.00055768614 0 23
1.8175249 19.435432 0.45496923 0 24
1.815913 19.418196 0.90906763 0 25
1.8151821 19.410379 1.3640077 0 26
1.8136976 19.394505 1.8193102 0 27
1.8121597 19.378061 2.2757859 0 28
1.8117329 19.373497 2.7356601 0 29
1.8101559 19.356632 3.1963091 0 30
1.8092182 19.346605 3.6609998 0 31
1.2147708 18.791595 -11.167578 0 0
1.2144376 18.786442 -10.580207 0 1
1.2133662 18.769865 -10.002157 0 2
1.2135463 18.772652 -9.4487534 0 3
1.2134062 18.770485 -8.9056625 0 4
1.2138832 18.777864 -8.3787727 0 5
1.2144336 18.786377 -7.8628273 0 6
1.2140791 18.780897 -7.3509479 0 7
1.2123554 18.75423 -6.8408184 0 8
1.2135381 18.772526 -6.3557181 0 9
1.2122678 18.752874 -5.8654737 0 10
1.2132052 18.767376 -5.3930259 0 11
1.2117898 18.745483 -4.916626 0 12
1.2117712 18.745195 -4.4521432 0 13
1.2123322 18.753872 -3.9946811 0 14
1.2119373 18.747763 -3.5385299 0 15
1.2111995 18.736349 -3.0857718 0 16
1.2120203 18.749046 -2.6403906 0 17
1.2115396 18.741611 -2.1949661 0 18
1.2122529 18.752645 -1.7540318 0 19
1.2113391 18.73851 -1.3127328 0 20
1.2112461 18.73707 -0.87411857 0 21
1.2110676 18.734308 -0.43649021 0 22
1.2114747 18.740606 0.0005361308 0 23
1.2116436 18.743219 0.43777084 0 24
1.2111797 18.736044 0.87514496 0 25
1.2110519 18.734068 1.3134987 0 26
1.2105619 18.726486 1.7526658 0 27
1.2110105 18.733425 2.1950939 0 28
1.20981 18.714855 2.6366677 0 29
1.2112999 18.737902 3.0871286 0 30
1.2111703 18.735897 3.5374007 0 31
0.66114563 18.426777 -10.934994 0 0
0.66095382 18.421432 -10.359692 0 1
0.66062963 18.412397 -9.7975311 0 2
0.661412 18.434202 -9.2650337 0 3
0.66077548 18.416462 -8.7251062 0 4
0.66117108 18.427488 -8.2105865 0 5
0.66090536 18.420082 -7.6984105 0 6
0.66092914 18.420744 -7.199594 0 7
0.66087943 18.419359 -6.7089906 0 8
0.66149175 18.436424 -6.232933 0 9
0.66150355 18.436754 -5.7582898 0 10
0.66115725 18.427103 -5.2876148 0 11
0.6613794 18.433294 -4.8277783 0 12
0.66146499 18.43568 -4.3723221 0 13
0.66160941 18.439703 -3.9221025 0 14
0.66206098 18.45229 -3.4777434 0 15
0.66178668 18.444645 -3.0333531 0 16
0.66180247 18.445086 -2.5938418 0 17
0.66197109 18.449785 -2.1576748 0 18
0.66185266 18.446484 -1.7229091 0 19
0.66173232 18.44313 -1.2901783 0 20
0.66209769 18.453314 -0.85964042 0 21
0.6619004 18.447815 -0.42919594 0 22
0.66188616 18.447418 0.00052698288 0 23
0.66206223 18.452324 0.43035567 0 24
0.66202193 18.4512 0.8605985 0 25
0.66210246 18.453445 1.2919594 0 26
0.66300321 18.478552 1.7269691 0 27
0.66318107 18.483507 2.1626892 0 28
0.66226894 18.458086 2.5967455 0 29
0.66238439 18.461304 3.0371759 0 30
0.66235918 18.460602 3.4804018 0 31
0.13095865 18.254543 -10.826097 0 0
0.13093652 18.251459 -10.257768 0 1
0.13104104 18.266029 -9.7136459 0 2
0.13110578 18.275055 -9.1793766 0 3
0.13111195 18.275913 -8.6531744 0 4
0.13118511 18.286112 -8.1425648 0 5
0.13121425 18.290174 -7.6393986 0 6
0.13121015 18.2896 -7.1439247 0 7
0.13112591 18.277861 -6.6533418 0 8
0.13118161 18.285624 -6.1781344 0 9
0.13125703 18.296137 -5.7108431 0 10
0.13126752 18.2976 -5.2472129 0 11
0.13133991 18.30769 -4.7919216 0 12
0.13139857 18.315866 -4.3412251 0 13
0.13140115 18.316227 -3.893434 0 14
0.13133723 18.307314 -3.4482894 0 15
0.13146502 18.325129 -3.0118372 0 16
0.13140489 18.316748 -2.5742042 0 17
0.13136025 18.310524 -2.1400666 0 18
0.13154019 18.335608 -1.7114959 0 19
0.13150448 18.330629 -1.2815168 0 20
0.13153477 18.33485 -0.8535946 0 21
0.13161962 18.346678 -0.42657942 0 22
0.13161123 18.34551 0.00052374817 0 23
0.13153666 18.335115 0.42735803 0 24
0.13172486 18.361349 0.85587889 0 25
0.13174361 18.363962 1.2849008 0 26
0.13173182 18.362318 1.7150469 0 27
0.13174172 18.363697 2.1473441 0 28
0.13166964 18.353651 2.5804594 0 29
0.13184442 18.378014 3.0216069 0 30
0.13178414 18.369612 3.4611096 0 31
-0.39246008 18.237219 -10.818048 0 0
-0.39267105 18.247021 -10.257383 0 1
-0.39272705 18.249624 -9.7069197 0 2
-0.39277247 18.251736 -9.1695499 0 3
-0.3928453 18.255119 -8.6451073 0 4
-0.39328671 18.275631 -8.1395721 0 5
-0.39353794 18.287306 -7.6397724 0 6
-0.39341545 18.281612 -7.1422739 0 7
-0.39380199 18.299576 -6.6626167 0 8
-0.39370224 18.294939 -6.1825538 0 9
-0.39375591 18.297434 -5.7124238 0 10
-0.39397565 18.307646 -5.251174 0 11
-0.39423713 18.319796 -4.7960773 0 12
-0.39424899 18.320347 -4.3431802 0 13
-0.39424729 18.320269 -3.8950944 0 14
-0.39437932 18.326403 -3.4525952 0 15
-0.39451942 18.332914 -3.0137367 0 16
-0.39474559 18.343424 -2.5784836 0 17
-0.39488956 18.350115 -2.1451349 0 18
-0.3952466 18.366705 -1.7147514 0 19
-0.39507437 18.358702 -1.2837435 0 20
-0.39513201 18.36138 -0.85500556 0 21
-0.39497694 18.354174 -0.42684153 0 22
-0.39521456 18.365215 0.00052441866 0 23
-0.39572859 18.389103 0.42870462 0 24
-0.39557219 18.381836 0.85701019 0 25
-0.39589447 18.396811 1.287464 0 26
-0.39589119 18.396658 1.7186077 0 27
-0.3957361 18.389452 2.1507981 0 28
-0.39661324 18.43021 2.5917566 0 29
-0.39583036 18.393831 3.0248299 0 30
-0.39658076 18.428701 3.4729574 0 31
-0.92275459 18.363655 -10.904268 0 0
-0.92347658 18.378023 -10.341665 0 1
-0.92416012 18.391626 -9.7925253 0 2
-0.92413831 18.391193 -9.2491283 0 3
-0.9249509 18.407364 -8.7261839 0 4
-0.92486387 18.405632 -8.2059145 0 5
-0.92521042 18.412527 -7.7000079 0 6
-0.9259088 18.426428 -7.2062645 0 7
-0.92641294 18.43646 -6.719368 0 8
-0.92616946 18.431614 -6.2351565 0 9
-0.92759264 18.459936 -5.7690926 0 10
-0.92725056 18.453129 -5.2983546 0 11
-0.92782211 18.464504 -4.8389401 0 12
-0.92805946 18.469227 -4.3829846 0 13
-0.92905325 18.489004 -3.9350181 0 14
-0.92943913 18.496683 -3.4882641 0 15
-0.929533 18.498552 -3.0440979 0 16
-0.93092734 18.5263 -2.6068723 0 17
-0.93109953 18.529728 -2.1683629 0 18
-0.93060207 18.519827 -1.730828 0 19
-0.93145233 18.536749 -1.2975285 0 20
-0.93181747 18.544016 -0.86439943 0 21
-0.93172938 18.542261 -0.43165979 0 22
-0.9323563 18.554739 0.00053037616 0 23
-0.93317246 18.57098 0.43339062 0 24
-0.93349075 18.577314 0.86701602 0 25
-0.9330619 18.568781 1.3008374 0 26
-0.93395758 18.586605 1.7381407 0 27
-0.93501496 18.607649 2.1785595 0 28
-0.9350341 18.608028 2.6194572 0 29
-0.93556213 18.618538 3.0649357 0 30
-0.93637288 18.634672 3.5153902 0 31
-1.4749647 18.655996 -11.098424 0 0
-1.4772412 18.684788 -10.533807 0 1
-1.4779706 18.694016 -9.9720087 0 2
-1.478938 18.706251 -9.4250393 0 3
-1.4802029 18.72225 -8.8919353 0 4
-1.4815494 18.739281 -8.3701773 0 5
-1.4823737 18.749708 -7.8555708 0 6
-1.4834683 18.763552 -7.3517308 0 7
-1.4841009 18.771555 -6.8541975 0 8
-1.4854263 18.788319 -6.3676238 0 9
-1.4863179 18.799595 -5.8861489 0 10
-1.4883116 18.824814 -5.4151087 0 11
-1.4881611 18.822908 -4.9420238 0 12
-1.4910463 18.859402 -4.4838872 0 13
-1.48984 18.844145 -4.0180483 0 14
-1.4903897 18.851097 -3.5617023 0 15
-1.4950707 18.910303 -3.1176322 0 16
-1.4932964 18.887861 -2.6626823 0 17
-1.4943457 18.901133 -2.2159312 0 18
-1.4957014 18.918282 -1.7713491 0 19
-1.4963053 18.92592 -1.327229 0 20
-1.4973396 18.939003 -0.88445002 0 21
-1.49913 18.961649 -0.4422425 0 22
-1.4992001 18.962536 0.00054303906 0 23
-1.5013434 18.989643 0.44398367 0 24
-1.5010172 18.985519 0.88771212 0 25
-1.5025077 19.004372 1.3338243 0 26
-1.5039366 19.022446 1.7822011 0 27
-1.5039042 19.022034 2.2312098 0 28
-1.5058576 19.046741 2.6861925 0 29
-1.5074152 19.066442 3.1444955 0 30
-1.5091547 19.088444 3.6076784 0 31
-2.1026907 19.468563 -11.612936 0 0
-2.1087055 19.524254 -11.03664 0 1
-2.1121969 19.55658 -10.460156 0 2
-2.1162562 19.594166 -9.8989344 0 3
-2.1245501 19.670958 -9.3676147 0 4
-2.1282163 19.704901 -8.8251333 0 5
-2.1316679 19.73686 -8.2913752 0 6
-2.1396105 19.8104 -7.7827497 0 7
-2.1477623 19.885874 -7.2805862 0 8
-2.1566517 19.968182 -6.7856789 0 9
