# .PCD v0.7 - Point Cloud Data file format
VERSION 0.7
FIELDS x y z intensity ring
SIZE 4 4 4 4 2
TYPE F F F F U
COUNT 1 1 1 1 1
WIDTH 503
HEIGHT 1
VIEWPOINT 0 0 0 1 0 0 0
POINTS 503
DATA ascii
22.229319 12.204054 -15.039134 0 0
22.233438 12.206315 -14.254683 0 1
21.028099 12.342507 -14.460138 0 0
20.979034 12.313708 -13.671375 0 1
20.906189 12.270951 -12.890936 0 2
20.843454 12.234129 -12.139357 0 3
19.941694 12.487474 -13.953753 0 0
19.900404 12.461618 -13.196087 0 1
19.851114 12.430753 -12.455209 0 2
19.787998 12.39123 -11.726932 0 3
19.709719 12.342212 -11.010444 0 4
19.623554 12.288255 -10.309688 0 5
19.59487 12.270293 -9.6563215 0 6
18.980816 12.657962 -12.821904 0 1
18.871969 12.585374 -12.062511 0 2
18.821085 12.55144 -11.3627 0 3
18.764116 12.513448 -10.678416 0 4
18.685301 12.460888 -10.000514 0 5
18.596306 12.401539 -9.3357754 0 6
18.515022 12.347332 -8.6923914 0 7
18.444384 12.300225 -8.069767 0 8
18.406843 12.275189 -7.4749665 0 9
17.935667 12.719114 -11.043975 0 3
17.872742 12.674491 -10.373873 0 4
17.812954 12.632092 -9.7236462 0 5
17.743835 12.583076 -9.0853605 0 6
17.653715 12.519167 -8.4532185 0 7
17.571648 12.460969 -7.8411603 0 8
17.489901 12.402998 -7.2441645 0 9
17.406189 12.343634 -6.6603632 0 10
17.331034 12.290338 -6.0927367 0 11
17.299868 12.268235 -5.5510139 0 12
17.098883 12.87851 -10.13505 0 4
17.019276 12.818551 -9.4873018 0 5
16.935682 12.755589 -8.8553514 0 6
16.864109 12.701683 -8.2462759 0 7
16.797207 12.651293 -7.6544385 0 8
16.705257 12.582039 -7.0658193 0 9
16.615696 12.514583 -6.4926381 0 10
16.527296 12.448003 -5.9333258 0 11
16.462622 12.399292 -5.3943238 0 12
16.373409 12.332099 -4.8583159 0 13
16.304089 12.279888 -4.3386555 0 14
16.235437 12.228182 -3.8282905 0 15
16.272249 12.255907 -3.3480649 0 16
16.338875 13.057214 -9.3130665 0 5
16.206045 12.951063 -8.6646118 0 6
16.139626 12.897984 -8.0696898 0 7
16.060255 12.834555 -7.483377 0 8
15.989333 12.777878 -6.9152622 0 9
15.892324 12.700354 -6.3497849 0 10
15.820256 12.642759 -5.8073606 0 11
15.727316 12.568487 -5.2694044 0 12
15.6453 12.502944 -4.7467837 0 13
15.562365 12.436666 -4.2345095 0 14
15.485433 12.375185 -3.7336459 0 15
15.410264 12.315115 -3.2420914 0 16
15.333535 12.253797 -2.758466 0 17
15.27831 12.209663 -2.2857699 0 18
15.242816 12.181298 -1.821279 0 19
15.479965 13.115864 -7.9247994 0 7
15.393606 13.042695 -7.3441329 0 8
15.306505 12.968896 -6.7781205 0 9
15.233466 12.907011 -6.2319689 0 10
15.134899 12.823497 -5.6885262 0 11
15.062119 12.761831 -5.1671124 0 12
14.975582 12.688511 -4.6521554 0 13
14.887321 12.613729 -4.1476207 0 14
14.814392 12.551938 -3.6571987 0 15
14.725425 12.476558 -3.1720347 0 16
14.638933 12.403275 -2.6964335 0 17
14.569489 12.344437 -2.2318063 0 18
14.48655 12.274164 -1.7722754 0 19
14.433859 12.22952 -1.322559 0 20
14.354062 12.161909 -0.8758601 0 21
14.317501 12.130932 -0.43631017 0 22
14.310669 12.125143 0.00053547398 0 23
14.80231 13.289644 -7.2410069 0 8
14.693598 13.19204 -6.6716108 0 9
14.600078 13.108078 -6.1242232 0 10
14.516964 13.033457 -5.5945525 0 11
14.433052 12.95812 -5.0767918 0 12
14.356503 12.889394 -4.5728655 0 13
14.273627 12.814987 -4.0774264 0 14
14.203999 12.752475 -3.5953789 0 15
14.111361 12.669303 -3.1167955 0 16
14.019933 12.587218 -2.6478631 0 17
13.941177 12.516512 -2.1896815 0 18
13.853701 12.437973 -1.7378062 0 19
13.786677 12.377799 -1.2952735 0 20
13.715869 12.314227 -0.85812902 0 21
13.637842 12.244174 -0.42613098 0 22
13.575544 12.188243 0.00052084075 0 23
13.513724 12.13274 0.42329025 0 24
13.454188 12.079288 0.84279168 0 25
13.4129 12.042219 1.261191 0 26
14.037569 13.349871 -6.0464854 0 10
13.928316 13.245971 -5.5119267 0 11
13.851617 13.173029 -5.0031886 0 12
13.771941 13.097257 -4.5045376 0 13
13.676625 13.00661 -4.0118618 0 14
13.59438 12.928394 -3.5335295 0 15
13.52476 12.862185 -3.067498 0 16
13.461044 12.80159 -2.6106198 0 17
13.367947 12.713054 -2.1560628 0 18
13.29717 12.645744 -1.7128133 0 19
13.236342 12.587897 -1.2769831 0 20
13.138506 12.494853 -0.84409338 0 21
13.076603 12.435983 -0.4195731 0 22
12.989531 12.353176 0.00051174837 0 23
12.917116 12.284309 0.41547418 0 24
12.846497 12.217149 0.82634741 0 25
12.780115 12.15402 1.2339803 0 26
12.704405 12.082019 1.6374688 0 27
12.659296 12.03912 2.0427787 0 28
12.599002 11.981779 2.4444487 0 29
12.576301 11.96019 2.853399 0 30
13.42508 13.521702 -5.4640932 0 11
13.31941 13.415272 -4.9479785 0 12
13.227792 13.322993 -4.4497828 0 13
13.143826 13.238424 -3.965384 0 14
13.055827 13.149791 -3.4901981 0 15
12.976691 13.070086 -3.0270185 0 16
12.905544 12.998426 -2.5741723 0 17
12.822706 12.914992 -2.1270261 0 18
12.752856 12.84464 -1.6894863 0 19
12.671485 12.762683 -1.2573062 0 20
12.596304 12.68696 -0.83230793 0 21
12.529394 12.619569 -0.41346541 0 22
12.46297 12.552667 0.00050498784 0 23
12.379143 12.468236 0.40951088 0 24
12.310916 12.399519 0.81445062 0 25
12.244368 12.332491 1.2159233 0 26
12.163937 12.251481 1.6124611 0 27
12.105037 12.192158 2.0089738 0 28
12.031004 12.117592 2.4007285 0 29
11.966493 12.052616 2.7923696 0 30
11.90349 11.989161 3.1831443 0 31
12.894753 13.755204 -4.9348369 0 12
12.737966 13.587955 -4.4143672 0 13
12.628749 13.47145 -3.9250093 0 14
12.543371 13.380375 -3.4544339 0 15
12.461985 13.293558 -2.9947133 0 16
12.379304 13.20536 -2.54375 0 17
12.307595 13.128866 -2.1032131 0 18
12.234106 13.050473 -1.669692 0 19
12.154403 12.965451 -1.2424076 0 20
12.08754 12.894127 -0.82280284 0 21
12.014117 12.815804 -0.40843025 0 22
11.940616 12.737398 0.00049842871 0 23
11.869948 12.662016 0.4045206 0 24
11.813195 12.601476 0.80511647 0 25
11.741909 12.525433 1.2012281 0 26
11.671479 12.450303 1.5938884 0 27
11.596729 12.370564 1.9827163 0 28
11.526864 12.296038 2.3695686 0 29
11.454462 12.218805 2.7535799 0 30
11.396059 12.156505 3.1394503 0 31
12.187638 13.772282 -3.9091432 0 14
12.072522 13.642198 -3.4311705 0 15
11.982491 13.540461 -2.9716439 0 16
11.895158 13.441772 -2.5224936 0 17
11.810196 13.345763 -2.0828059 0 18
11.745908 13.273117 -1.654369 0 19
11.668018 13.1851 -1.2308617 0 20
11.598675 13.106741 -0.81479412 0 21
11.52662 13.025317 -0.40439862 0 22
11.455204 12.944615 0.00049347006 0 23
11.387498 12.868106 0.40049931 0 24
11.324507 12.796925 0.79651189 0 25
11.257145 12.720805 1.1884933 0 26
11.183747 12.637864 1.5761627 0 27
11.127232 12.574 1.9633325 0 28
11.053543 12.490731 2.3449914 0 29
10.998083 12.42806 2.7284853 0 30
10.928226 12.349119 3.1069212 0 31
11.692047 14.001868 -3.4358249 0 15
11.547519 13.828788 -2.9609735 0 16
11.44215 13.702603 -2.5087864 0 17
11.351087 13.593549 -2.0697854 0 18
11.277564 13.505502 -1.642318 0 19
11.199412 13.41191 -1.2215283 0 20
11.132268 13.331502 -0.80857319 0 21
11.051968 13.235337 -0.40090683 0 22
10.993827 13.165711 0.0004896695 0 23
10.934319 13.094448 0.39761376 0 24
10.861033 13.006684 0.78984213 0 25
10.809541 12.945018 1.1799724 0 26
10.731324 12.85135 1.5637351 0 27
10.669379 12.777167 1.9464446 0 28
10.613153 12.709833 2.327986 0 29
10.545819 12.629197 2.7050862 0 30
10.487164 12.558955 3.0827255 0 31
11.052738 14.035833 -2.5106888 0 17
10.937148 13.889046 -2.0661361 0 18
10.835226 13.759615 -1.6347333 0 19
10.763881 13.669015 -1.2163098 0 20
10.689088 13.574035 -0.80434668 0 21
10.609789 13.473333 -0.39872879 0 22
10.539148 13.383627 0.00048632504 0 23
10.473548 13.300322 0.39457577 0 24
10.419157 13.23125 0.78499824 0 25
10.355048 13.149839 1.1710724 0 26
10.305045 13.086341 1.5557032 0 27
10.232867 12.994682 1.9340478 0 28
10.17653 12.92314 2.3126111 0 29
10.117424 12.848081 2.6886711 0 30
10.053493 12.766896 3.0616865 0 31
10.602819 14.289529 -2.079591 0 18
10.445052 14.076903 -1.6361428 0 19
10.357657 13.959122 -1.2151742 0 20
10.264986 13.834227 -0.80197841 0 21
10.185033 13.726473 -0.39740649 0 22
10.119084 13.637594 0.00048480157 0 23
10.050021 13.544516 0.39310199 0 24
9.9988699 13.475579 0.78214759 0 25
9.9273481 13.379189 1.1656456 0 26
9.8648987 13.295025 1.5462195 0 27
9.8130293 13.22512 1.925638 0 28
9.7596931 13.153238 2.3027179 0 29
9.706111 13.081025 2.6780255 0 30
9.6420183 12.994647 3.0486908 0 31
9.9847775 14.296059 -1.2190591 0 20
9.8713703 14.133684 -0.80258518 0 21
9.7858763 14.011274 -0.39735767 0 22
9.7085667 13.900584 0.00048404673 0 23
9.6415491 13.804628 0.39245915 0 24
9.5757141 13.710367 0.779504 0 25
9.5103502 13.61678 1.1620884 0 26
9.4569712 13.540354 1.5425525 0 27
9.4007807 13.459901 1.9197508 0 28
9.3449135 13.37991 2.2945061 0 29
9.282239 13.290174 2.6652107 0 30
9.2370625 13.225491 3.0394056 0 31
9.5799561 14.590903 -0.81260216 0 21
9.4194241 14.346402 -0.39903131 0 22
9.3264885 14.204856 0.00048512212 0 23
9.2532196 14.093262 0.3929536 0 24
9.1751966 13.974428 0.77922571 0 25
9.1149559 13.882677 1.1619781 0 26
9.0540962 13.789985 1.5407556 0 27
8.9982548 13.704934 1.9170789 0 28
8.9388828 13.614507 2.2898021 0 29
8.9015551 13.557654 2.6665237 0 30
8.8277245 13.445206 3.0304303 0 31
9.0029869 14.609061 0.00048990099 0 23
8.8756733 14.402471 0.39431065 0 24
8.7952118 14.271908 0.78141731 0 25
8.7390976 14.180852 1.1654638 0 26
8.6677485 14.065074 1.5430633 0 27
8.6093397 13.970294 1.918847 0 28
8.5494499 13.873113 2.2910876 0 29
8.5020161 13.796142 2.6643438 0 30
8.4453125 13.70413 3.0329139 0 31
8.4598923 14.652933 0.78866166 0 25
8.367053 14.49213 1.1708301 0 26
8.2824335 14.345566 1.547122 0 27
8.2222872 14.24139 1.9228805 0 28
8.1683817 14.148024 2.2968292 0 29
8.1185045 14.061634 2.6695225 0 30
8.0626221 13.964842 3.0381541 0 31
8.0641518 14.941617 1.1879582 0 26
7.9398823 14.711364 1.5613552 0 27
7.860086 14.563514 1.9351206 0 28
7.7967353 14.446136 2.3079507 0 29
7.7344303 14.330694 2.677361 0 30
7.6839962 14.237247 3.048188 0 31
7.532486 14.968621 1.959419 0 28
7.4405661 14.785957 2.3271694 0 29
7.3715587 14.648826 2.6961634 0 30
7.3169422 14.540291 3.0668495 0 31
7.0230479 15.014051 2.7251666 0 30
6.9501305 14.858167 3.0905542 0 31
6.6219225 15.284269 3.1383646 0 31
1.8647975 19.940935 -8.9179478 0 5
1.8586919 19.875647 -8.3376207 0 6
1.8522065 19.806293 -7.7699003 0 7
1.8467401 19.747841 -7.2196088 0 8
1.8440565 19.719145 -6.6913724 0 9
1.8417866 19.694872 -6.174099 0 10
1.8400364 19.676155 -5.6670156 0 11
1.8365532 19.638908 -5.1626554 0 12
1.8343203 19.615032 -4.6693177 0 13
1.8317814 19.587883 -4.1818056 0 14
1.8300222 19.569071 -3.7019353 0 15
1.8281467 19.549015 -3.2269254 0 16
1.8262203 19.528416 -2.7563934 0 17
1.8260502 19.526596 -2.2920949 0 18
1.8232123 19.49625 -1.8277266 0 19
1.8231212 19.495275 -1.36885 0 20
1.8202279 19.464336 -0.9101091 0 21
1.8185091 19.445957 -0.45409986 0 22
1.8203524 19.465668 0.00055813807 0 23
1.8168702 19.428432 0.45480534 0 24
1.8153551 19.41223 0.90878832 0 25
1.8156235 19.4151 1.3643395 0 26
1.814414 19.402166 1.8200289 0 27
1.8125271 19.381989 2.276247 0 28
1.8133377 19.390657 2.7380831 0 29
1.8104122 19.359373 3.1967616 0 30
1.8103443 19.358648 3.6632786 0 31
1.2146653 18.789963 -11.166608 0 0
1.2140478 18.780411 -10.576811 0 1
1.2141244 18.781597 -10.008409 0 2
1.2128923 18.762537 -9.4436617 0 3
1.2141114 18.781395 -8.9108391 0 4
1.2135445 18.772625 -8.3764343 0 5
1.2138753 18.777742 -7.8592134 0 6
1.2127514 18.760355 -7.3429079 0 7
1.2132201 18.767607 -6.8456979 0 8
1.2128569 18.761988 -6.3521509 0 9
1.2124516 18.755718 -5.866363 0 10
1.2133242 18.769217 -5.3935547 0 11
1.2124987 18.756447 -4.9195023 0 12
1.2112199 18.736666 -4.4501176 0 13
1.2120359 18.749289 -3.9937046 0 14
1.2117296 18.744551 -3.5379238 0 15
1.211274 18.737503 -3.0859618 0 16
1.2127002 18.759565 -2.6418722 0 17
1.2121173 18.750547 -2.1960125 0 18
1.2122579 18.752722 -1.7540389 0 19
1.2115653 18.742008 -1.3129779 0 20
1.2121029 18.750324 -0.87473691 0 21
1.2104838 18.725279 -0.4362798 0 22
1.2107704 18.729712 0.0005358191 0 23
1.2120323 18.749233 0.43791127 0 24
1.2114435 18.740126 0.87533563 0 25
1.211803 18.745686 1.3143133 0 26
1.2114726 18.740574 1.7539845 0 27
1.2112803 18.7376 2.1955829 0 28
1.2114344 18.739983 2.6402078 0 29
1.2106353 18.727623 3.0854352 0 30
1.2103696 18.723511 3.5350618 0 31
0.66066521 18.413389 -10.927049 0 0
0.66074032 18.415482 -10.356345 0 1
0.66103446 18.423679 -9.8035345 0 2
0.66140288 18.433949 -9.2649069 0 3
0.66063511 18.41255 -8.7232533 0 4
0.66105586 18.424276 -8.2091551 0 5
0.66123152 18.429173 -7.7022099 0 6
0.66125464 18.429815 -7.2031398 0 7
0.66145891 18.435511 -6.7148733 0 8
0.6610049 18.422855 -6.2283459 0 9
0.66134632 18.432371 -5.7569213 0 10
0.66151643 18.437113 -5.2904873 0 11
0.66108942 18.425213 -4.8256617 0 12
0.66226053 18.457851 -4.3775806 0 13
0.66140848 18.434105 -3.9209113 0 14
0.66131628 18.431536 -3.4738317 0 15
0.66220987 18.456438 -3.0352926 0 16
0.6618371 18.446049 -2.5939775 0 17
0.66191471 18.448212 -2.157491 0 18
0.66190195 18.447857 -1.7230374 0 19
0.66211891 18.453905 -1.2909321 0 20
0.66176933 18.444162 -0.85921407 0 21
0.66203409 18.45154 -0.42928258 0 22
0.66219908 18.456139 0.00052723207 0 23
0.66207457 18.452669 0.43036368 0 24
0.66226947 18.458099 0.86092025 0 25
0.66227514 18.458258 1.2922963 0 26
0.66241682 18.462208 1.7254416 0 27
0.66279626 18.472784 2.1614342 0 28
0.66286838 18.474792 2.5990958 0 29
0.66245317 18.463221 3.0374913 0 30
0.66243637 18.462751 3.4808075 0 31
0.13093008 18.250565 -10.823737 0 0
0.13094173 18.252188 -10.258177 0 1
0.13097864 18.257334 -9.7090216 0 2
0.1311015 18.274458 -9.1790771 0 3
0.13105327 18.267735 -8.6493025 0 4
0.13107806 18.271191 -8.1359205 0 5
0.1311539 18.281761 -7.6358848 0 6
0.13118204 18.285685 -7.142395 0 7
0.13112874 18.278255 -6.6534858 0 8
0.13127325 18.298397 -6.1824503 0 9
0.13114294 18.280233 -5.7058797 0 10
0.13119398 18.287348 -5.2442732 0 11
0.13124312 18.294199 -4.7883906 0 12
0.13135774 18.310175 -4.3398762 0 13
0.13137078 18.311995 -3.8925343 0 14
0.13139683 18.315622 -3.4498544 0 15
0.13144276 18.322025 -3.011327 0 16
0.13135861 18.310297 -2.5732975 0 17
0.13148892 18.328461 -2.1421628 0 18
0.13148847 18.3284 -1.7108231 0 19
0.13157526 18.340494 -1.2822064 0 20
0.13148342 18.327694 -0.85326141 0 21
0.13153473 18.334845 -0.42630431 0 22
0.13169813 18.357624 0.00052409404 0 23
0.1315794 18.341072 0.42749688 0 24
0.13170487 18.358561 0.85574895 0 25
0.13159661 18.343472 1.2834671 0 26
0.13164794 18.350628 1.7139549 0 27
0.13175723 18.36586 2.1475971 0 28
0.13180524 18.372553 2.5831168 0 29
0.13183346 18.376486 3.0213556 0 30
0.13185278 18.379179 3.4629121 0 31
-0.39257398 18.242512 -10.821188 0 0
-0.39264598 18.245857 -10.256729 0 1
-0.39284763 18.255228 -9.7098999 0 2
-0.39288959 18.257177 -9.1722841 0 3
-0.3934522 18.283319 -8.6584625 0 4
-0.39320114 18.271654 -8.1378012 0 5
-0.39330474 18.276468 -7.6352448 0 6
-0.39340851 18.28129 -7.142148 0 7
-0.3937737 18.298262 -6.6621385 0 8
-0.39363825 18.291965 -6.1815491 0 9
-0.39361253 18.290771 -5.7103438 0 10
-0.39410245 18.313538 -5.2528644 0 11
-0.39392823 18.305441 -4.7923193 0 12
-0.3946192 18.337551 -4.347259 0 13
-0.39421254 18.318653 -3.8947511 0 14
-0.39443702 18.329084 -3.4531004 0 15
-0.39445239 18.329798 -3.0132246 0 16
-0.39448884 18.331493 -2.5768068 0 17
-0.39467865 18.340313 -2.1439893 0 18
-0.39491129 18.351124 -1.7132968 0 19
-0.39489624 18.350424 -1.2831647 0 20
-0.39527431 18.367992 -0.85531348 0 21
-0.39510798 18.360264 -0.42698315 0 22
-0.39535132 18.371571 0.00052460015 0 23
-0.39550254 18.378597 0.4284597 0 24
-0.39565927 18.385881 0.85719877 0 25
-0.39548546 18.377806 1.286134 0 26
-0.3959164 18.397829 1.7187171 0 27
-0.39642107 18.421282 2.154521 0 28
-0.39603513 18.403347 2.5879788 0 29
-0.39628944 18.415165 3.0283382 0 30
-0.39646366 18.42326 3.4719322 0 31
-0.92268872 18.362345 -10.90349 0 0
-0.9234001 18.376501 -10.340809 0 1
-0.92327785 18.374067 -9.7831764 0 2
-0.92416555 18.391735 -9.2494011 0 3
-0.92451966 18.398781 -8.7221155 0 4
-0.92546391 18.417574 -8.2112379 0 5
-0.92544335 18.417164 -7.7019467 0 6
-0.9261421 18.43107 -7.2080803 0 7
-0.92633379 18.434885 -6.7187939 0 8
-0.92695194 18.447186 -6.2404242 0 9
-0.92661405 18.440462 -5.7630062 0 10
-0.92738634 18.455832 -5.2991304 0 11
-0.92750955 18.458282 -4.8373098 0 12
-0.92854553 18.478899 -4.3852801 0 13
-0.92831278 18.474268 -3.9318819 0 14
-0.92862797 18.480539 -3.4852195 0 15
-0.9298023 18.503912 -3.0449798 0 16
-0.92958778 18.499641 -2.6031213 0 17
-0.93022585 18.512341 -2.166328 0 18
-0.93054056 18.518602 -1.7307136 0 19
-0.93161494 18.539984 -1.297755 0 20
-0.93199664 18.547581 -0.86456561 0 21
-0.93263912 18.560366 -0.43208125 0 22
-0.9324975 18.557549 0.00053045648 0 23
-0.93290424 18.565643 0.43326604 0 24
-0.93336546 18.574821 0.86689961 0 25
-0.93398964 18.587244 1.3021308 0 26
-0.934389 18.59519 1.7389437 0 27
-0.93422973 18.59202 2.1767297 0 28
-0.9351058 18.609455 2.6196582 0 29
-0.93529439 18.613209 3.0640585 0 30
-0.93642837 18.635775 3.5155983 0 31
-1.4765605 18.676178 -11.110431 0 0
-1.477275 18.685217 -10.534048 0 1
-1.4780974 18.695618 -9.9728642 0 2
-1.479513 18.713524 -9.4287043 0 3
-1.4798622 18.717941 -8.8898888 0 4
-1.4811383 18.734083 -8.367856 0 5
-1.4827672 18.754684 -7.8576555 0 6
-1.4832727 18.761078 -7.3507614 0 7
-1.4845443 18.777163 -6.856245 0 8
-1.4856461 18.791098 -6.368566 0 9
-1.4856726 18.791433 -5.883594 0 10
-1.487625 18.816128 -5.4126101 0 11
-1.4885479 18.827801 -4.9433084 0 12
-1.4897454 18.842947 -4.4799747 0 13
-1.4900615 18.846947 -4.0186453 0 14
-1.4902034 18.84874 -3.5612569 0 15
-1.4917947 18.868868 -3.1108007 0 16
-1.492875 18.882532 -2.6619308 0 17
-1.4943819 18.901592 -2.2159848 0 18
-1.4962591 18.925335 -1.7720095 0 19
-1.4960277 18.922409 -1.3269827 0 20
-1.4981742 18.949558 -0.88494295 0 21
-1.4981387 18.94911 -0.44195005 0 22
-1.5000781 18.97364 0.00054335711 0 23
-1.5008088 18.982883 0.44382557 0 24
-1.5023121 19.001898 0.88847786 0 25
-1.5029087 19.009443 1.3341802 0 26
-1.5045357 19.030022 1.7829109 0 27
-1.5057516 19.045401 2.2339504 0 28
-1.505795 19.04595 2.6860809 0 29
-1.5072039 19.06377 3.1440547 0 30
-1.5090362 19.086945 3.6073952 0 31
-2.1022375 19.464367 -11.610433 0 0
-2.1064994 19.503828 -11.025094 0 1
-2.1111116 19.54653 -10.454782 0 2
-2.1156271 19.588339 -9.8959913 0 3
-2.119451 19.623745 -9.3451319 0 4
-2.124553 19.670984 -8.8099432 0 5
-2.1323435 19.743114 -8.2940025 0 6
-2.138103 19.796442 -7.777266 0 7
-2.1453702 19.863728 -7.2724776 0 8
-2.1550462 19.953318 -6.7806273 0 9
