# .PCD v0.7 - Point Cloud Data file format
VERSION 0.7
FIELDS x y z intensity ring
SIZE 4 4 4 4 2
TYPE F F F F U
COUNT 1 1 1 1 1
WIDTH 505
HEIGHT 1
VIEWPOINT 0 0 0 1 0 0 0
POINTS 505
DATA ascii
22.212194 12.194653 -15.027548 0 0
22.2376 12.2086 -14.257352 0 1
21.030483 12.343906 -14.461778 0 0
20.973454 12.310432 -13.667739 0 1
20.918074 12.277927 -12.898265 0 2
20.85479 12.240782 -12.145958 0 3
19.944281 12.489094 -13.955564 0 0
19.887291 12.453406 -13.187391 0 1
19.844585 12.426664 -12.451113 0 2
19.796272 12.396411 -11.731835 0 3
19.707275 12.340681 -11.009079 0 4
19.643307 12.300624 -10.320065 0 5
19.599535 12.273213 -9.6586199 0 6
18.959641 12.64384 -12.8076 0 1
18.871952 12.585361 -12.0625 0 2
18.826275 12.5549 -11.365833 0 3
18.756304 12.508239 -10.673971 0 4
18.680664 12.457796 -9.9980326 0 5
18.597305 12.402205 -9.336277 0 6
18.519159 12.350091 -8.6943331 0 7
18.435619 12.294379 -8.0659323 0 8
18.392977 12.265943 -7.4693356 0 9
17.930079 12.715151 -11.040534 0 3
17.88253 12.681432 -10.379555 0 4
17.815685 12.634028 -9.7251368 0 5
17.73534 12.577052 -9.0810118 0 6
17.663237 12.525919 -8.457778 0 7
17.567373 12.457937 -7.8392525 0 8
17.489986 12.403059 -7.2441998 0 9
17.405378 12.34306 -6.6600533 0 10
17.336 12.293859 -6.0944824 0 11
17.286634 12.258851 -5.5467682 0 12
17.080091 12.864355 -10.123912 0 4
17.007931 12.810005 -9.4809771 0 5
16.937578 12.757019 -8.8563433 0 6
16.867416 12.704173 -8.2478924 0 7
16.784027 12.641366 -7.6484323 0 8
16.695614 12.574776 -7.0617404 0 9
16.605116 12.506616 -6.4885044 0 10
16.538486 12.456431 -5.9373431 0 11
16.450827 12.390408 -5.3904586 0 12
16.373005 12.331793 -4.8581958 0 13
16.295708 12.273575 -4.3364248 0 14
16.253206 12.241564 -3.8324802 0 15
16.269327 12.253705 -3.3474634 0 16
16.324844 13.046 -9.305069 0 5
16.205053 12.950271 -8.6640816 0 6
16.131044 12.891127 -8.0653992 0 7
16.053288 12.828987 -7.4801307 0 8
15.977529 12.768444 -6.9101567 0 9
15.888989 12.697688 -6.3484521 0 10
15.795889 12.623286 -5.7984157 0 11
15.714667 12.558378 -5.2651663 0 12
15.640519 12.499123 -4.7453332 0 13
15.560572 12.435233 -4.2340217 0 14
15.478481 12.36963 -3.7319698 0 15
15.402761 12.309118 -3.2405131 0 16
15.327017 12.248588 -2.7572935 0 17
15.269258 12.20243 -2.284416 0 18
15.232242 12.172848 -1.8200157 0 19
15.470515 13.107858 -7.9199619 0 7
15.37916 13.030454 -7.3372402 0 8
15.299221 12.962724 -6.7748947 0 9
15.224014 12.899002 -6.2281017 0 10
15.146589 12.833402 -5.6929202 0 11
15.049864 12.751449 -5.1629086 0 12
14.967566 12.681719 -4.6496649 0 13
14.881152 12.608502 -4.1459022 0 14
14.809306 12.547628 -3.6559432 0 15
14.727977 12.47872 -3.1725845 0 16
14.646496 12.409682 -2.6978266 0 17
14.57268 12.347139 -2.2322948 0 18
14.489171 12.276384 -1.772596 0 19
14.417286 12.215477 -1.3210404 0 20
14.362216 12.168818 -0.87635767 0 21
14.313659 12.127676 -0.43619308 0 22
14.310794 12.125249 0.00053547864 0 23
14.799883 13.287464 -7.239819 0 8
14.688917 13.187839 -6.6694856 0 9
14.581214 13.091142 -6.1163106 0 10
14.504511 13.022277 -5.5897532 0 11
14.435845 12.960629 -5.0777745 0 12
14.352154 12.885489 -4.5714808 0 13
14.264734 12.807003 -4.0748858 0 14
14.186354 12.736632 -3.5909126 0 15
14.110195 12.668257 -3.1165383 0 16
14.032401 12.598413 -2.650218 0 17
13.948696 12.523262 -2.1908624 0 18
13.860986 12.444514 -1.7387201 0 19
13.793 12.383476 -1.2958677 0 20
13.713977 12.312529 -0.85801065 0 21
13.659713 12.263809 -0.42681435 0 22
13.562579 12.176602 0.00052034337 0 23
13.504942 12.124855 0.42301518 0 24
13.456049 12.080958 0.8429082 0 25
13.430359 12.057894 1.2628326 0 26
14.217529 13.521015 -6.6289072 0 9
14.035639 13.348035 -6.0456538 0 10
13.937525 13.254728 -5.5155711 0 11
13.849773 13.171276 -5.0025229 0 12
13.762885 13.088644 -4.5015755 0 13
13.691808 13.021049 -4.0163155 0 14
13.611596 12.944766 -3.5380042 0 15
13.522723 12.860248 -3.0670357 0 16
13.444864 12.786203 -2.607482 0 17
13.367846 12.712957 -2.1560466 0 18
13.305022 12.653212 -1.7138247 0 19
13.221367 12.573654 -1.2755383 0 20
13.143866 12.49995 -0.84443772 0 21
13.062772 12.42283 -0.41912934 0 22
12.986818 12.350596 0.0005116415 0 23
12.912299 12.279728 0.41531923 0 24
12.850881 12.221319 0.82662946 0 25
12.782083 12.155891 1.2341703 0 26
12.705056 12.082638 1.6375527 0 27
12.655521 12.03553 2.0421696 0 28
12.598808 11.981595 2.444411 0 29
12.579741 11.963462 2.8541796 0 30
13.433712 13.530396 -5.4676065 0 11
13.319917 13.415781 -4.9481668 0 12
13.222808 13.317973 -4.4481058 0 13
13.14605 13.240664 -3.9660549 0 14
13.050148 13.144072 -3.4886801 0 15
12.973195 13.066565 -3.0262029 0 16
12.899895 12.992736 -2.5730453 0 17
12.818646 12.910904 -2.1263528 0 18
12.749925 12.841687 -1.689098 0 19
12.671025 12.762219 -1.2572606 0 20
12.594868 12.685514 -0.8322131 0 21
12.530932 12.621119 -0.41351616 0 22
12.452894 12.542519 0.00050457963 0 23
12.378658 12.467749 0.40949488 0 24
12.317466 12.406116 0.81488395 0 25
12.233426 12.321471 1.2148368 0 26
12.158082 12.245584 1.6116849 0 27
12.104438 12.191555 2.0088744 0 28
12.040372 12.127028 2.4025979 0 29
11.963583 12.049685 2.7916906 0 30
11.905695 11.991382 3.1837337 0 31
12.890547 13.750718 -4.9332271 0 12
12.733903 13.583621 -4.4129591 0 13
12.628897 13.471608 -3.9250553 0 14
12.543777 13.380809 -3.454546 0 15
12.457644 13.288927 -2.99367 0 16
12.380684 13.206833 -2.5440338 0 17
12.306558 13.12776 -2.1030357 0 18
12.217824 13.033105 -1.66747 0 19
12.15838 12.969694 -1.2428142 0 20
12.077794 12.883731 -0.82213938 0 21
12.010761 12.812224 -0.40831614 0 22
11.939354 12.736053 0.00049837603 0 23
11.879178 12.671862 0.40483513 0 24
11.799027 12.586363 0.80415088 0 25
11.740395 12.523817 1.2010732 0 26
11.66698 12.445504 1.5932741 0 27
11.587677 12.360909 1.9811686 0 28
11.534476 12.304158 2.3711333 0 29
11.461793 12.226624 2.755342 0 30
11.387931 12.147834 3.1372111 0 31
12.198481 13.784534 -3.9126208 0 14
12.073504 13.643308 -3.4314497 0 15
11.987105 13.545675 -2.9727886 0 16
11.903399 13.451085 -2.5242412 0 17
11.804666 13.339515 -2.0818307 0 18
11.744061 13.27103 -1.654109 0 19
11.668046 13.185132 -1.2308646 0 20
11.598063 13.10605 -0.81475115 0 21
11.526238 13.024886 -0.40438524 0 22
11.455173 12.944581 0.00049346872 0 23
11.394863 12.87643 0.40075836 0 24
11.325379 12.797911 0.79657328 0 25
11.260605 12.724714 1.1888584 0 26
11.189333 12.644176 1.5769498 0 27
11.124216 12.570592 1.9628004 0 28
11.060365 12.498439 2.3464386 0 29
10.995448 12.425082 2.7278316 0 30
10.920458 12.340342 3.104713 0 31
11.690698 14.000252 -3.4354281 0 15
11.547635 13.828927 -2.9610033 0 16
11.435643 13.694811 -2.5073597 0 17
11.357974 13.601798 -2.0710413 0 18
11.277205 13.505072 -1.6422657 0 19
11.197768 13.409943 -1.2213491 0 20
11.126111 13.324129 -0.80812597 0 21
11.05135 13.234597 -0.40088442 0 22
10.993669 13.165522 0.0004896624 0 23
10.927034 13.085724 0.39734885 0 24
10.86799 13.015015 0.79034805 0 25
10.79737 12.930443 1.1786438 0 26
10.728153 12.847553 1.5632731 0 27
10.666106 12.773248 1.9458476 0 28
10.617158 12.714629 2.3288643 0 29
10.548769 12.63273 2.7058427 0 30
10.483068 12.554049 3.0815213 0 31
11.049456 14.031665 -2.5099432 0 17
10.928391 13.877926 -2.064482 0 18
10.83548 13.759938 -1.6347716 0 19
10.761671 13.666207 -1.2160599 0 20
10.676335 13.55784 -0.80338705 0 21
10.609426 13.472872 -0.39871511 0 22
10.542187 13.387486 0.00048646523 0 23
10.485317 13.315268 0.39501917 0 24
10.422016 13.234881 0.78521365 0 25
10.353588 13.147985 1.1709071 0 26
10.297757 13.077085 1.5546029 0 27
10.237305 13.000317 1.9348865 0 28
10.178072 12.925097 2.3129616 0 29
10.112184 12.841426 2.6872785 0 30
10.046201 12.757634 3.0594654 0 31
10.592949 14.276226 -2.0776551 0 18
10.438822 14.068506 -1.6351669 0 19
10.345174 13.942297 -1.2137096 0 20
10.260087 13.827624 -0.80159569 0 21
10.18076 13.720716 -0.39723977 0 22
10.11994 13.638747 0.00048484257 0 23
10.037914 13.5282 0.39262846 0 24
9.9827709 13.453882 0.78088826 0 25
9.9338493 13.38795 1.1664089 0 26
9.8675013 13.298532 1.5466274 0 27
9.8190079 13.233177 1.9268111 0 28
9.7559547 13.1482 2.3018358 0 29
9.6948566 13.065858 2.6749203 0 30
9.6338253 12.983605 3.0461004 0 31
9.9827089 14.293097 -1.2188064 0 20
9.8785391 14.143949 -0.80316806 0 21
9.7811842 14.004557 -0.39716715 0 22
9.7013283 13.89022 0.00048368581 0 23
9.6351175 13.795421 0.39219737 0 24
9.5780239 13.713675 0.77969193 0 25
9.5127277 13.620184 1.1623788 0 26
9.4578781 13.541651 1.5427003 0 27
9.4018955 13.461496 1.9199784 0 28
9.3388243 13.371192 2.2930112 0 29
9.2957668 13.309543 2.6690948 0 30
9.2259254 13.209545 3.0357411 0 31
9.5728407 14.580067 -0.81199867 0 21
9.4214125 14.349431 -0.39911556 0 22
9.3224745 14.198743 0.00048491335 0 23
9.2405434 14.073956 0.39241529 0 24
9.1760178 13.975679 0.7792955 0 25
9.1159992 13.884267 1.1621112 0 26
9.0554657 13.792071 1.5409887 0 27
8.9938297 13.698195 1.9161361 0 28
8.950284 13.631871 2.2927227 0 29
8.8953533 13.548209 2.6646659 0 30
8.8341494 13.454991 3.0326359 0 31
8.9924622 14.591984 0.00048932829 0 23
8.8846731 14.417075 0.39471051 0 24
8.7978134 14.27613 0.78164846 0 25
8.7241526 14.1566 1.1634706 0 26
8.6697111 14.068259 1.5434127 0 27
8.6052628 13.963678 1.9179382 0 28
8.5539989 13.880493 2.2923064 0 29
8.4990168 13.791274 2.663404 0 30
8.4435396 13.701252 3.0322771 0 31
8.4570122 14.647944 0.7883932 0 25
8.3578024 14.476109 1.1695356 0 26
8.2876711 14.354639 1.5481005 0 27
8.2305088 14.25563 1.9248033 0 28
8.1681242 14.147577 2.296757 0 29
8.1131277 14.05232 2.6677544 0 30
8.069973 13.977574 3.0409243 0 31
8.0503197 14.915988 1.1859205 0 26
7.9376945 14.707311 1.5609251 0 27
7.8626232 14.568215 1.9357452 0 28
7.7945685 14.442121 2.3073094 0 29
7.7285399 14.319779 2.6753221 0 30
7.6904941 14.249287 3.0507655 0 31
7.5270219 14.957764 1.9579977 0 28
7.4408975 14.786616 2.3272731 0 29
7.3730845 14.651858 2.6967216 0 30
7.3100376 14.52657 3.0639555 0 31
7.0258636 15.020071 2.7262592 0 30
6.9489012 14.855539 3.0900078 0 31
6.620585 15.281182 3.1377308 0 31
1.8693328 19.989431 -8.9396362 0 5
1.8596644 19.886045 -8.3419838 0 6
1.8550218 19.836401 -7.7817111 0 7
1.8501418 19.784216 -7.2329073 0 8
1.8457912 19.737694 -6.6976671 0 9
1.8423098 19.700466 -6.1758528 0 10
1.839372 19.669052 -5.6649694 0 11
1.83718 19.645611 -5.1644173 0 12
1.8342179 19.613935 -4.6690569 0 13
1.8320099 19.590326 -4.1823273 0 14
1.831097 19.580563 -3.7041097 0 15
1.8284454 19.55221 -3.2274525 0 16
1.82816 19.549158 -2.7593212 0 17
1.8264534 19.530909 -2.2926011 0 18
1.8238126 19.502668 -1.8283283 0 19
1.8221959 19.48538 -1.3681552 0 20
1.8215513 19.478489 -0.91077083 0 21
1.8221163 19.484529 -0.45500061 0 22
1.8185338 19.44622 0.00055758044 0 23
1.8171594 19.431524 0.45487773 0 24
1.8150356 19.408813 0.9086284 0 25
1.8151189 19.409704 1.3639603 0 26
1.8136779 19.394297 1.8192905 0 27
1.8138056 19.39566 2.2778528 0 28
1.8124177 19.380821 2.7366941 0 29
1.8106874 19.362316 3.1972477 0 30
1.8105801 19.36117 3.6637559 0 31
1.214776 18.791676 -11.167625 0 0
1.2144943 18.787319 -10.580701 0 1
1.2142311 18.783247 -10.009287 0 2
1.213405 18.770468 -9.4476538 0 3
1.2147806 18.791746 -8.9157505 0 4
1.2142154 18.783003 -8.3810654 0 5
1.2128618 18.762064 -7.8526511 0 6
1.2134726 18.771513 -7.3472748 0 7
1.2126892 18.759394 -6.8427024 0 8
1.2131083 18.765879 -6.3534679 0 9
1.2121886 18.75165 -5.8650908 0 10
1.2126468 18.758739 -5.3905439 0 11
1.2119423 18.747841 -4.9172444 0 12
1.21272 18.759871 -4.4556289 0 13
1.2118973 18.747143 -3.9932477 0 14
1.211897 18.747139 -3.5384123 0 15
1.2123319 18.753866 -3.0886567 0 16
1.212649 18.758772 -2.6417603 0 17
1.2115633 18.741978 -2.195009 0 18
1.2121164 18.750532 -1.7538342 0 19
1.2120634 18.749714 -1.3135177 0 20
1.2114882 18.740816 -0.87429333 0 21
1.2109052 18.731796 -0.43643168 0 22
1.2116246 18.742928 0.00053619716 0 23
1.2111666 18.73584 0.43759847 0 24
1.2113255 18.7383 0.87525034 0 25
1.2113889 18.739281 1.3138642 0 26
1.2110739 18.734406 1.7534071 0 27
1.2107799 18.729858 2.1946757 0 28
1.2115557 18.741861 2.6404724 0 29
1.2101967 18.720839 3.0843172 0 30
1.2112013 18.736378 3.5374913 0 31
0.66101092 18.423023 -10.932766 0 0
0.66023666 18.401443 -10.348451 0 1
0.66084528 18.418407 -9.8007288 0 2
0.66107345 18.424767 -9.2602921 0 3
0.66086173 18.418865 -8.7262459 0 4
0.66109079 18.425249 -8.209589 0 5
0.66112828 18.426296 -7.7010074 0 6
0.66131812 18.431585 -7.2038312 0 7
0.66078961 18.416857 -6.7080789 0 8
0.66167569 18.441551 -6.2346663 0 9
0.66166693 18.441307 -5.7597117 0 10
0.66143 18.434704 -5.2897964 0 11
0.66166717 18.441315 -4.8298788 0 12
0.66160852 18.43968 -4.373271 0 13
0.66138178 18.433361 -3.920753 0 14
0.66149825 18.436605 -3.4747872 0 15
0.66175514 18.443766 -3.0332084 0 16
0.66169453 18.442076 -2.5934188 0 17
0.66149718 18.436577 -2.1561301 0 18
0.6617319 18.443119 -1.7225947 0 19
0.66177869 18.444422 -1.2902687 0 20
0.66187745 18.447174 -0.85935444 0 21
0.66227722 18.458317 -0.42944023 0 22
0.66184759 18.446342 0.00052695221 0 23
0.66179329 18.44483 0.43018085 0 24
0.6623674 18.460829 0.86104757 0 25
0.66256797 18.466421 1.2928678 0 26
0.66224486 18.457415 1.7249937 0 27
0.66181821 18.445524 2.1582446 0 28
0.6623323 18.45985 2.5969937 0 29
0.66320312 18.484123 3.04093 0 30
0.66282356 18.473543 3.482842 0 31
0.13099463 18.259562 -10.829074 0 0
0.13095595 18.254169 -10.259291 0 1
0.13095787 18.254438 -9.7074814 0 2
0.13104628 18.26676 -9.17521 0 3
0.13108623 18.272327 -8.6514769 0 4
0.13111752 18.27669 -8.1383686 0 5
0.1311176 18.276701 -7.6337709 0 6
0.13113102 18.278574 -7.1396174 0 7
0.13132209 18.305204 -6.6632953 0 8
0.13115562 18.282001 -6.1769109 0 9
0.13123961 18.293707 -5.7100854 0 10
0.13128158 18.299561 -5.2477751 0 11
0.13135311 18.309528 -4.7924032 0 12
0.13131866 18.304728 -4.3385849 0 13
0.13142411 18.319427 -3.894114 0 14
0.13149765 18.329678 -3.4525018 0 15
0.13142174 18.319096 -3.0108457 0 16
0.13143915 18.321522 -2.5748751 0 17
0.13148189 18.327478 -2.1420481 0 18
0.13145818 18.324175 -1.7104288 0 19
0.13149954 18.329943 -1.2814687 0 20
0.13157748 18.340805 -0.85387182 0 21
0.13157041 18.339819 -0.42641994 0 22
0.13169034 18.356537 0.00052406301 0 23
0.13154301 18.336 0.42737865 0 24
0.13163972 18.349482 0.8553257 0 25
0.13158675 18.342096 1.283371 0 26
0.13166694 18.353275 1.7142022 0 27
0.13174003 18.363464 2.1473167 0 28
0.1318081 18.372952 2.5831728 0 29
0.13173497 18.362759 3.0190985 0 30
0.13185397 18.379345 3.4629433 0 31
-0.39251325 18.239689 -10.819514 0 0
-0.39230865 18.230181 -10.247917 0 1
-0.39268497 18.247669 -9.7058792 0 2
-0.39306274 18.265223 -9.1763268 0 3
-0.39333463 18.277859 -8.6558762 0 4
-0.39324263 18.273582 -8.1386595 0 5
-0.3935287 18.286877 -7.6395926 0 6
-0.39297041 18.260933 -7.1341949 0 7
-0.39342511 18.282063 -6.6562405 0 8
-0.39357197 18.288887 -6.1805081 0 9
-0.39395779 18.306816 -5.7153525 0 10
-0.39398274 18.307974 -5.2512689 0 11
-0.39382184 18.300497 -4.7910252 0 12
-0.39410171 18.313503 -4.341558 0 13
-0.39431331 18.323336 -3.8957465 0 14
-0.39464921 18.338945 -3.454958 0 15
-0.39446515 18.330391 -3.0133221 0 16
-0.39469162 18.340916 -2.5781312 0 17
-0.39495456 18.353134 -2.145488 0 18
-0.39484999 18.348274 -1.7130308 0 19
-0.39495847 18.353315 -1.2833669 0 20
-0.39539409 18.373558 -0.8555727 0 21
-0.39515123 18.362272 -0.42702988 0 22
-0.3956168 18.383907 0.00052495243 0 23
-0.3954469 18.376011 0.42839941 0 24
-0.39562765 18.384411 0.85713029 0 25
-0.39558521 18.382439 1.2864583 0 26
-0.39603958 18.403553 1.7192519 0 27
-0.39614758 18.408571 2.1530344 0 28
-0.39615363 18.408854 2.5887532 0 29
-0.39632627 18.416876 3.0286195 0 30
-0.39658192 18.428755 3.4729676 0 31
-0.9229719 18.367981 -10.906837 0 0
-0.92260069 18.360592 -10.331857 0 1
-0.92349315 18.378353 -9.7854576 0 2
-0.92372698 18.383007 -9.2450113 0 3
-0.92449445 18.398279 -8.7218781 0 4
-0.9249317 18.406982 -8.2065163 0 5
-0.92536139 18.415533 -7.7012649 0 6
-0.92520899 18.4125 -7.2008176 0 7
-0.92617178 18.43166 -6.7176185 0 8
-0.926736 18.442888 -6.2389708 0 9
-0.9271301 18.450733 -5.7662158 0 10
-0.92730266 18.454166 -5.2986522 0 11
-0.92837191 18.475445 -4.8418074 0 12
-0.92797399 18.467525 -4.3825812 0 13
-0.92903024 18.488546 -3.9349205 0 14
-0.92978966 18.50366 -3.4895797 0 15
-0.92962992 18.500481 -3.0444152 0 16
-0.92957389 18.499367 -2.6030824 0 17
-0.93029219 18.51366 -2.1664827 0 18
-0.93062311 18.520247 -1.7308673 0 19
-0.93156034 18.538898 -1.2976789 0 20
-0.93179721 18.543612 -0.86438066 0 21
-0.93280208 18.56361 -0.43215677 0 22
-0.93216521 18.550936 0.00053026748 0 23
-0.93270189 18.561617 0.43317208 0 24
-0.93364346 18.580353 0.86715782 0 25
-0.93370581 18.581594 1.3017352 0 26
-0.93421263 18.591681 1.7386154 0 27
-0.93512827 18.609903 2.1788235 0 28
-0.93540931 18.615496 2.6205084 0 29
-0.93631154 18.633451 3.0673909 0 30
-0.93602049 18.627659 3.5140672 0 31
-1.4749846 18.656246 -11.098574 0 0
-1.4765037 18.675461 -10.528549 0 1
-1.4775558 18.688766 -9.9692087 0 2
-1.4792072 18.709656 -9.426755 0 3
-1.4794292 18.712463 -8.8872881 0 4
-1.4804668 18.72559 -8.3640623 0 5
-1.4823923 18.749943 -7.855669 0 6
-1.482759 18.75458 -7.3482156 0 7
-1.4843879 18.775183 -6.8555226 0 8
-1.4854583 18.788721 -6.3677607 0 9
-1.4874408 18.813799 -5.8905964 0 10
-1.4867083 18.804533 -5.4092746 0 11
-1.4899404 18.845413 -4.9479327 0 12
-1.4901625 18.848223 -4.4812288 0 13
-1.4887912 18.830879 -4.0152197 0 14
-1.4914062 18.863955 -3.5641315 0 15
-1.4921216 18.873003 -3.1114826 0 16
-1.4927443 18.880878 -2.6616979 0 17
-1.4955581 18.91647 -2.2177291 0 18
-1.4955946 18.916931 -1.7712227 0 19
-1.4969697 18.934322 -1.3278183 0 20
-1.4976411 18.942816 -0.88462812 0 21
-1.4985695 18.954559 -0.44207716 0 22
-1.5013361 18.989552 0.00054381276 0 23
-1.5002075 18.975277 0.44364774 0 24
-1.5010712 18.986202 0.88774401 0 25
-1.5028592 19.008818 1.3341364 0 26
-1.5040848 19.024319 1.7823766 0 27
-1.5051588 19.037903 2.2330711 0 28
-1.5068376 19.059137 2.6879406 0 29
-1.5074524 19.066914 3.144573 0 30
-1.5083641 19.078445 3.6057885 0 31
-2.1012771 19.455475 -11.605129 0 0
-2.1068552 19.50712 -11.026955 0 1
-2.1093335 19.530067 -10.445977 0 2
-2.1144581 19.577517 -9.890523 0 3
-2.1191251 19.620728 -9.3436947 0 4
-2.1243403 19.669014 -8.8090611 0 5
-2.1297419 19.719027 -8.2838831 0 6
-2.1348076 19.765928 -7.7652788 0 7
-2.1415448 19.828308 -7.25951 0 8
-2.1514177 19.91972 -6.7692099 0 9
-2.1658127 20.053001 -6.2954593 0 10
