# .PCD v0.7 - Point Cloud Data file format
VERSION 0.7
FIELDS x y z intensity ring
SIZE 4 4 4 4 2
TYPE F F F F U
COUNT 1 1 1 1 1
WIDTH 619
HEIGHT 1
VIEWPOINT 0 0 0 1 0 0 0
POINTS 619
DATA ascii
10.911666 21.683756 -14.395923 0 0
10.16761 21.736578 -14.231409 0 0
10.088429 21.567303 -13.381564 0 1
10.17456 21.751432 -12.769732 0 2
9.5305147 21.997683 -14.217436 0 0
9.4204521 21.743643 -13.317752 0 1
9.3204212 21.51276 -12.467449 0 2
9.2825241 21.425289 -11.728016 0 3
8.9253969 22.336699 -14.265124 0 0
8.8108625 22.050064 -13.345066 0 1
8.6989145 21.769905 -12.466664 0 2
8.5870752 21.490015 -11.623765 0 3
8.5117722 21.301563 -10.860841 0 4
8.5538998 21.40699 -10.264813 0 5
8.331502 22.721369 -14.352183 0 0
8.222579 22.424316 -13.423228 0 1
8.1149149 22.130699 -12.534752 0 2
7.9958458 21.805979 -11.665748 0 3
7.8867488 21.508453 -10.846461 0 4
7.7911739 21.247805 -10.07712 0 5
7.7571373 21.154982 -9.4110155 0 6
7.8810067 21.492794 -8.9414511 0 7
7.7479954 23.165438 -14.486268 0 0
7.6499667 22.872347 -13.554421 0 1
7.5429435 22.552362 -12.645767 0 2
7.4272523 22.206461 -11.761126 0 3
7.3205056 21.887304 -10.927069 0 4
7.2052269 21.542635 -10.114716 0 5
7.1079712 21.251854 -9.3595114 0 6
7.046957 21.069431 -8.6776171 0 7
7.0719543 21.144169 -8.1155901 0 8
7.2469544 21.667397 -7.7191472 0 9
7.1513495 23.61285 -14.631689 0 0
7.0658059 23.330397 -13.70006 0 1
6.9688063 23.010115 -12.785037 0 2
6.8626261 22.659521 -11.891874 0 3
6.7572503 22.311584 -11.037529 0 4
6.6439991 21.937643 -10.206454 0 5
6.5299764 21.561153 -9.4093237 0 6
6.4320869 21.237936 -8.6674242 0 7
6.3633671 21.01103 -7.9911065 0 8
6.3569436 20.989822 -7.4097137 0 9
6.4127297 21.174021 -6.905407 0 10
6.5913248 21.763718 -6.5209785 0 11
6.5600233 24.13567 -14.832891 0 0
6.4719539 23.811644 -13.867882 0 1
6.3877521 23.501848 -12.95107 0 2
6.294868 23.160109 -12.054816 0 3
6.191134 22.778448 -11.17599 0 4
6.0821805 22.377586 -10.325678 0 5
5.9622588 21.936371 -9.4944897 0 6
5.8462691 21.509621 -8.7062454 0 7
5.7516408 21.161465 -7.9822569 0 8
5.6892977 20.932091 -7.3286786 0 9
5.672606 20.87068 -6.7506089 0 10
5.6997595 20.970583 -6.2317581 0 11
5.7571869 21.18187 -5.7452106 0 12
5.915967 21.766054 -5.3460131 0 13
5.956811 24.694706 -15.065192 0 0
5.8729129 24.346893 -14.075658 0 1
5.7987189 24.039316 -13.150131 0 2
5.7105536 23.673815 -12.231863 0 3
5.6170154 23.286039 -11.341274 0 4
5.5136757 22.857632 -10.469861 0 5
5.3979235 22.377768 -9.6145277 0 6
5.277298 21.877699 -8.790309 0 7
5.1582909 21.384338 -8.0071907 0 8
5.0720162 21.026678 -7.3078241 0 9
5.0196452 20.809566 -6.6814971 0 10
5.0000467 20.728319 -6.1146064 0 11
5.0072398 20.758139 -5.5890045 0 12
5.0387287 20.88868 -5.0929065 0 13
5.086689 21.087505 -4.6109657 0 14
5.2290916 21.677853 -4.2001538 0 15
5.2640185 24.940994 -14.32589 0 1
5.1831565 24.557869 -13.34693 0 2
5.1068363 24.196262 -12.420966 0 3
5.0290813 23.82786 -11.530124 0 4
4.9285254 23.351423 -10.62688 0 5
4.825058 22.861193 -9.7587185 0 6
4.6995134 22.266361 -8.8886232 0 7
4.5794854 21.697666 -8.0719795 0 8
4.4831328 21.241146 -7.3346281 0 9
4.4088655 20.889267 -6.6637187 0 10
4.3661819 20.687031 -6.0629683 0 11
4.3489399 20.605337 -5.511991 0 12
4.3459392 20.591122 -4.987896 0 13
4.3570766 20.64389 -4.4847775 0 14
4.384944 20.775927 -3.9993742 0 15
4.432127 20.999479 -3.5273259 0 16
4.5302124 21.464211 -3.0829191 0 17
4.3798246 20.751671 -1.97964 0 19
4.5639138 25.178436 -13.607415 0 2
4.4892468 24.76651 -12.642358 0 3
4.415504 24.359682 -11.721326 0 4
4.3343487 23.911963 -10.82091 0 5
4.2369504 23.374628 -9.9218988 0 6
4.125493 22.759737 -9.0345936 0 7
4.0133166 22.140877 -8.1906433 0 8
3.9111702 21.577347 -7.4089112 0 9
3.8264868 21.110163 -6.6963968 0 10
3.7665172 20.779318 -6.0558434 0 11
3.7363763 20.613035 -5.4831095 0 12
3.7192831 20.518736 -4.9424715 0 13
3.7155559 20.498173 -4.4281335 0 14
3.7205319 20.525625 -3.9290197 0 15
3.737052 20.616762 -3.4436078 0 16
3.6124077 19.929119 -2.8463709 0 17
3.6263013 20.00577 -2.376241 0 18
3.6529047 20.152536 -1.9116968 0 19
3.6908894 20.362091 -1.4466985 0 20
3.7509162 20.693251 -0.97906554 0 21
3.9256196 21.657063 -0.51174164 0 22
3.9642813 21.870354 0.00063453754 0 23
3.8734059 21.369007 0.50617576 0 24
3.8916781 21.469812 1.0170557 0 25
4.0784898 22.500427 1.5999364 0 26
3.8693199 21.346466 3.566762 0 30
3.7711775 20.805029 3.9837534 0 31
3.8585691 25.422943 -12.915599 0 3
3.7844076 24.934317 -11.940652 0 4
3.7136073 24.467834 -11.019695 0 5
3.6339207 23.942804 -10.114642 0 6
3.5472336 23.371649 -9.233284 0 7
3.4546926 22.761925 -8.3802633 0 8
3.3588049 22.13015 -7.5625129 0 9
3.2709761 21.551472 -6.8038073 0 10
3.2016907 21.094971 -6.1185384 0 11
3.1578071 20.805834 -5.5080204 0 12
3.1312137 20.630619 -4.9457402 0 13
3.1189237 20.549643 -4.4180975 0 14
3.1133814 20.513128 -3.9079156 0 15
3.0838768 20.318731 -3.3776548 0 16
3.0009861 19.772589 -2.8105571 0 17
3.0061755 19.806782 -2.3413947 0 18
3.0144169 19.86108 -1.8750707 0 19
3.0304205 19.966524 -1.4118339 0 20
3.0524824 20.111881 -0.94702446 0 21
2.9786088 19.625151 -0.46151912 0 22
2.9223709 19.254618 0.00055598345 0 23
2.8933628 19.063492 0.44941226 0 24
2.8918889 19.05378 0.89830351 0 25
2.918931 19.231953 1.3610084 0 26
2.9776602 19.618902 1.8533497 0 27
3.1036565 20.449053 2.4185157 0 28
3.1307154 20.627337 2.933269 0 29
3.0932517 20.380499 3.3891313 0 30
3.0664682 20.204031 3.8502381 0 31
3.137373 25.602196 -12.212344 0 4
3.065943 25.0193 -11.223813 0 5
3.0064323 24.533669 -10.323555 0 6
2.9403293 23.994244 -9.4420252 0 7
2.8740468 23.453352 -8.6009178 0 8
2.8016298 22.8624 -7.7820649 0 9
2.7358789 22.325848 -7.0206003 0 10
2.6708369 21.795078 -6.2967792 0 11
2.6123183 21.317543 -5.6213264 0 12
2.5691733 20.965464 -5.0062752 0 13
2.5467222 20.782253 -4.450562 0 14
2.5097079 20.480202 -3.8863218 0 15
2.4257596 19.795151 -3.2776964 0 16
2.4219964 19.764441 -2.7983668 0 17
2.416589 19.720316 -2.3220191 0 18
2.4189186 19.739326 -1.856258 0 19
2.4038289 19.616188 -1.3816148 0 20
2.3200836 18.932793 -0.88800293 0 21
2.2671268 18.500647 -0.43336597 0 22
2.2398839 18.278334 0.00052572036 0 23
2.224751 18.154842 0.42631063 0 24
2.223321 18.143173 0.85201341 0 25
2.234529 18.234634 1.2853628 0 26
2.2593553 18.437227 1.7348802 0 27
2.3106301 18.85565 2.2213063 0 28
2.4067004 19.63962 2.7818458 0 29
2.4528382 20.016125 3.3154678 0 30
2.4403458 19.914181 3.7800996 0 31
2.4058399 25.72649 -11.505353 0 5
2.3375318 24.99605 -10.485576 0 6
2.2893059 24.480352 -9.603507 0 7
2.2391167 23.943663 -8.7535582 0 8
2.1905785 23.424623 -7.9487672 0 9
2.1466918 22.95533 -7.1962123 0 10
2.1130605 22.595699 -6.5078859 0 11
2.1103477 22.566689 -5.9323068 0 12
2.010937 21.503654 -4.5908027 0 14
1.8801007 20.104578 -3.8032389 0 15
1.8660688 19.954529 -3.2938631 0 16
1.8561994 19.848993 -2.8016422 0 17
1.8477057 19.758167 -2.3192775 0 18
1.8251324 19.516783 -1.8296515 0 19
1.7506675 18.720503 -1.3144498 0 20
1.7067362 18.250731 -0.85336357 0 21
1.6796944 17.961561 -0.41943642 0 22
1.6626815 17.779636 0.00050979457 0 23
1.655275 17.700438 0.41435426 0 24
1.6529206 17.675261 0.82747167 0 25
1.6595711 17.746376 1.2470747 0 26
1.6751487 17.912954 1.6803327 0 27
1.6974106 18.151009 2.1316793 0 28
1.7426255 18.634506 2.63131 0 29
1.8273849 19.540869 3.2267315 0 30
1.8488714 19.770632 3.7412391 0 31
1.9414835 30.033298 -17.848362 0 0
1.9382937 29.983953 -16.886456 0 1
1.9357978 29.945343 -15.957388 0 2
1.9337227 29.913242 -15.056096 0 3
1.9318557 29.884361 -14.178645 0 4
1.9284199 29.831213 -13.310829 0 5
1.928622 29.834339 -12.486827 0 6
1.6146072 24.976765 -9.7760458 0 7
1.5748703 24.362066 -8.8863411 0 8
1.5391353 23.809273 -8.0609846 0 9
1.5095675 23.351881 -7.3039379 0 10
1.4947013 23.12191 -6.6443524 0 11
1.921716 29.727507 -7.7970271 0 12
1.9201711 29.703611 -7.0548606 0 13
1.9201653 29.70352 -6.3270183 0 14
1.3248954 20.49514 -3.8683372 0 15
1.3079332 20.232748 -3.3322203 0 16
1.2958509 20.045843 -2.8230159 0 17
1.2876791 19.919432 -2.3329091 0 18
1.2200516 18.873287 -1.765316 0 19
1.1800158 18.253962 -1.2787876 0 20
1.155718 17.878092 -0.83404565 0 21
1.1416379 17.660284 -0.41146657 0 22
1.1308683 17.493687 0.00050045893 0 23
1.1263244 17.423395 0.40694472 0 24
1.1247268 17.398682 0.81267792 0 25
1.1281242 17.451237 1.2235559 0 26
1.1372108 17.591801 1.6464673 0 27
1.1502867 17.794073 2.0850248 0 28
1.1731106 18.147142 2.5566847 0 29
1.2149937 18.795044 3.0965428 0 30
1.2766929 19.749483 3.7287691 0 31
1.0260181 28.596134 -16.96979 0 0
1.0259522 28.594296 -16.080622 0 1
1.0263211 28.604576 -15.220953 0 2
1.0265001 28.609566 -14.379174 0 3
1.0260426 28.596817 -13.54822 0 4
1.0260472 28.596945 -12.741709 0 5
1.0260799 28.597855 -11.952065 0 6
1.0261992 28.601181 -11.178533 0 7
1.0256679 28.586374 -10.412181 0 8
0.87711561 24.446074 -8.264658 0 9
0.85812801 23.91687 -7.4698763 0 10
1.0260563 28.597197 -8.2059002 0 11
1.0261239 28.599079 -7.490252 0 12
1.0258888 28.592529 -6.7811852 0 13
1.0256041 28.584593 -6.0799079 0 14
0.77629834 21.636198 -4.0778213 0 15
0.74703968 20.820728 -3.4241168 0 16
0.7336058 20.446314 -2.8752649 0 17
0.69740731 19.437426 -2.2731779 0 18
0.66610134 18.564898 -1.733969 0 19
0.64737236 18.042904 -1.2621808 0 20
0.63539833 17.709175 -0.82497501 0 21
0.62775075 17.496031 -0.40705228 0 22
0.62218064 17.340786 0.00049537001 0 23
0.62058133 17.296211 0.40339214 0 24
0.61976957 17.273586 0.80567235 0 25
0.62125164 17.314894 1.2122473 0 26
0.62486023 17.415468 1.6276153 0 27
0.63186675 17.610746 2.0605705 0 28
0.64308923 17.923529 2.5215421 0 29
0.66143841 18.434937 3.0328381 0 30
0.69821131 19.459835 3.6687887 0 31
0.20302434 28.299902 -16.78363 0 0
0.20296629 28.291809 -15.900691 0 1
0.20298707 28.294708 -15.046772 0 2
0.20294142 28.288343 -14.208951 0 3
0.20300224 28.296822 -13.397817 0 4
0.20301394 28.298452 -12.600928 0 5
0.20311871 28.313055 -11.825733 0 6
0.20307752 28.307316 -11.056848 0 7
0.20309933 28.310354 -10.30528 0 8
0.20310257 28.310808 -9.5653276 0 9
0.20306863 28.306076 -8.8352842 0 10
0.20298702 28.294699 -8.1140871 0 11
0.20314519 28.316748 -7.4117293 0 12
0.2031524 28.317753 -6.7118711 0 13
0.20315212 28.317715 -6.0194249 0 14
0.19927622 27.777447 -5.2320437 0 15
0.19928196 27.778244 -4.5655098 0 16
0.14931995 20.813957 -2.9251578 0 17
0.13846183 19.300426 -2.2557626 0 18
0.13235538 18.449236 -1.7221024 0 19
0.12879735 17.953278 -1.2551357 0 20
0.12652557 17.63661 -0.82108742 0 21
0.12492713 17.413801 -0.40488908 0 22
0.12414604 17.304924 0.00049404037 0 23
0.12364543 17.235144 0.40171972 0 24
0.1236353 17.233732 0.80331719 0 25
0.12401626 17.286833 1.2095356 0 26
0.12460651 17.36911 1.6222808 0 27
0.12583975 17.541012 2.0511441 0 28
0.12805182 17.849358 2.5095572 0 29
0.13146396 18.324982 3.0128875 0 30
0.13828748 19.276123 3.6319098 0 31
-0.60990864 28.341829 -16.811954 0 0
-0.61001021 28.346548 -15.934733 0 1
-0.60992682 28.342676 -15.075382 0 2
-0.61018246 28.354555 -14.245139 0 3
-0.61017126 28.354034 -13.427668 0 4
-0.61031401 28.360666 -12.631229 0 5
-0.6103428 28.362003 -11.848616 0 6
-0.61062741 28.375231 -11.085656 0 7
-0.61053467 28.370922 -10.329452 0 8
-0.61077875 28.382265 -9.591444 0 9
-0.61066079 28.376781 -8.8591766 0 10
-0.61071277 28.379196 -8.1399927 0 11
-0.61097115 28.391205 -7.4327474 0 12
-0.61080968 28.383699 -6.7288861 0 13
-0.61085159 28.385649 -6.0351071 0 14
-0.59916317 27.842499 -5.2453761 0 15
-0.59921694 27.844997 -4.5774226 0 16
-0.45184961 20.996988 -2.951488 0 17
-0.41703475 19.379177 -2.2654328 0 18
-0.39875498 18.529736 -1.7299722 0 19
-0.38772595 18.017229 -1.2598658 0 20
-0.38049212 17.68108 -0.82332706 0 21
-0.37619349 17.481325 -0.40654272 0 22
-0.37314549 17.339689 0.00049513474 0 23
-0.37163046 17.269287 0.40259838 0 24
-0.37150231 17.263332 0.80486256 0 25
-0.37234342 17.302418 1.2108752 0 26
-0.37442541 17.399166 1.6254224 0 27
-0.37853011 17.589907 2.0572848 0 28
-0.38513541 17.896849 2.5167522 0 29
-0.39599767 18.401606 3.0261085 0 30
-0.41750768 19.401154 3.6562197 0 31
-1.4452364 28.76152 -17.07848 0 0
-1.4463207 28.783096 -16.196798 0 1
-1.4458441 28.773611 -15.320358 0 2
-1.4472862 28.802313 -14.484993 0 3
-1.4474397 28.805367 -13.655456 0 4
-1.4468119 28.792871 -12.836932 0 5
-1.4478006 28.812548 -12.049233 0 6
-1.4484508 28.825487 -11.273161 0 7
-1.4485403 28.827269 -10.506412 0 8
-1.4491936 28.840271 -9.756259 0 9
-1.4489906 28.836229 -9.0118876 0 10
-1.4492043 28.840485 -8.2808237 0 11
-1.4499505 28.855333 -7.5620351 0 12
-1.4498945 28.854218 -6.8474765 0 13
-1.4504761 28.865791 -6.1435118 0 14
-1.4155407 28.170547 -5.3126445 0 15
-1.4153208 28.16617 -4.6349883 0 16
-1.0992591 21.876255 -3.0782511 0 17
-0.99371862 19.775904 -2.3141913 0 18
-0.94425678 18.791569 -1.7562245 0 19
-0.91498917 18.209116 -1.274595 0 20
-0.89671767 17.845497 -0.83183914 0 21
-0.88575733 17.627377 -0.41036147 0 22
-0.8773545 17.460152 0.00049908808 0 23
-0.87387782 17.390963 0.40585256 0 24
-0.87329733 17.379412 0.81110901 0 25
-0.875076 17.414808 1.2199957 0 26
-0.88128954 17.538464 1.640123 0 27
-0.89165944 17.744833 2.0775421 0 28
-0.90857035 18.081377 2.5453203 0 29
-0.93846482 18.676304 3.074445 0 30
-0.99799526 19.861012 3.7467365 0 31
-2.3008485 29.102131 -4.7978997 0 16
-2.3012972 29.107809 -4.1034207 0 17
-1.6314893 20.635786 -2.4192984 0 18
-1.5292064 19.342068 -1.811029 0 19
-1.4704443 18.59882 -1.3042902 0 20
-1.4349409 18.149757 -0.84759235 0 21
-1.4149656 17.8971 -0.41741407 0 22
-1.3991104 17.696556 0.00050678465 0 23
-1.393955 17.63135 0.41222632 0 24
-1.3933275 17.623411 0.8240236 0 25
-1.397365 17.674479 1.2404857 0 26
-1.4090921 17.822809 1.6698079 0 27
-1.4289993 18.074604 2.1200798 0 28
-1.4616606 18.487719 2.6073527 0 29
-1.526881 19.312654 3.1851015 0 30
-1.6798441 21.247398 4.0157166 0 31
-2.2034431 20.401417 -1.9153497 0 19
-2.0921335 19.370815 -1.3620781 0 20
-2.023989 18.739874 -0.87750196 0 21
-1.9848487 18.377478 -0.42976946 0 22
-1.9589155 18.137365 0.00052080379 0 23
-1.9479707 18.03603 0.42282081 0 24
-1.9465476 18.022852 0.8449645 0 25
-1.9553996 18.104813 1.2741027 0 26
-1.9753697 18.289713 1.7181557 0 27
-2.015343 18.659821 2.1946039 0 28
-2.0893703 19.34523 2.7356191 0 29
-2.2384336 20.725389 3.4272776 0 30
-2.8167229 20.540884 -1.4494398 0 20
-2.7247241 19.869986 -0.93369699 0 21
-2.6474507 19.306469 -0.4530848 0 22
-2.6044977 18.993237 0.00054730056 0 23
-2.5803342 18.817024 0.44268349 0 24
-2.577203 18.794191 0.88423061 0 25
-2.5973861 18.941376 1.3376697 0 26
-2.6453462 19.291124 1.8186123 0 27
-2.733212 19.931883 2.3524694 0 28
-2.9568911 21.563057 3.0599828 0 29
-3.4262388 20.58036 -1.4585632 0 20
-3.350379 20.124695 -0.94979292 0 21
-3.3100259 19.882307 -0.46863487 0 22
-3.2901845 19.763124 0.00057197065 0 23
-3.2897835 19.760715 0.46691334 0 24
-3.300714 19.826372 0.9368636 0 25
-3.3346703 20.030336 1.4207473 0 26
-3.3977585 20.409288 1.9324207 0 27
-3.5783224 21.493879 2.5478959 0 28
-4.0365105 20.582243 -1.4663028 0 20
-3.9459865 20.120659 -0.95455402 0 21
-3.9027021 19.89995 -0.47149652 0 22
-3.8799729 19.784054 0.00057556195 0 23
-3.8771975 19.769901 0.46956617 0 24
-3.8949683 19.860516 0.94337058 0 25
-3.9360852 20.070173 1.4309958 0 26
-4.0126939 20.4608 1.9473997 0 27
-4.5682979 20.205946 -0.96442276 0 21
-4.5053005 19.927301 -0.47501242 0 22
-4.4783759 19.808212 0.00057976507 0 23
-4.4762578 19.798845 0.47310996 0 24
-4.4930911 19.873301 0.94971156 0 25
-4.5484967 20.118362 1.4431446 0 26
-5.4426427 21.223106 -1.0200067 0 21
-5.3187466 20.739985 -0.49781808 0 22
-5.2737632 20.564575 0.00060608325 0 23
-5.2691879 20.546736 0.49439132 0 24
-5.3028593 20.678032 0.9950313 0 25
-5.4034843 21.07041 1.5219345 0 26
-6.1208611 21.307646 -1.0320871 0 21
-5.9622998 20.755671 -0.50209492 0 22
-5.9072909 20.564175 0.00061081635 0 23
-5.8952045 20.5221 0.49766451 0 24
-5.9327588 20.652834 1.0015992 0 25
-6.040525 21.027983 1.5307611 0 26
-6.3721418 22.182392 2.1555765 0 27
-6.5676651 22.863039 2.7815192 0 28
-6.6855187 23.273306 3.4043891 0 29
-6.9162283 24.076439 4.1184921 0 30
-6.815546 21.393124 -1.045271 0 21
-6.6335506 20.821863 -0.50809216 0 22
-6.5594258 20.589195 0.0006168969 0 23
-6.5498776 20.559225 0.50291598 0 24
-6.5938358 20.697205 1.0125114 0 25
-6.7139897 21.07435 1.5475258 0 26
-6.9940486 21.953421 2.1519446 0 27
-7.2596812 22.787207 2.7964888 0 28
-7.434866 23.33709 3.4435129 0 29
-7.6084523 23.881954 4.1208777 0 30
-7.5221004 21.461763 -1.0587364 0 21
-7.3213978 20.889126 -0.51464874 0 22
-7.2391281 20.654398 0.00062481791 0 23
-7.2394443 20.655298 0.51013827 0 24
-7.2935777 20.80975 1.0278335 0 25
-7.4402914 21.228348 1.5738654 0 26
-7.7372766 22.075693 2.1847966 0 27
-8.0588903 22.993309 2.8489916 0 28
-8.2956514 23.668827 3.5261393 0 29
-8.5097227 24.279606 4.2298913 0 30
-8.2513294 21.541723 -1.0739204 0 21
-8.0207338 20.939707 -0.52135128 0 22
-7.9504709 20.756271 0.00063454069 0 23
-7.9546328 20.767138 0.51832515 0 24
-8.0437565 20.999813 1.0481913 0 25
-8.2353983 21.500132 1.6108744 0 26
-8.5560579 22.337276 2.2340662 0 27
-8.9182129 23.282755 2.9153669 0 28
-9.2005062 24.019735 3.6162639 0 29
-9.451704 24.675537 4.3443356 0 30
-8.9852295 21.582819 -1.0883762 0 21
-8.7361889 20.984615 -0.528494 0 22
-8.6742811 20.835911 0.00064432027 0 23
-8.7271843 20.962986 0.52924645 0 24
-8.8699074 21.305813 1.0757278 0 25
-9.1062965 21.873627 1.6577559 0 26
-9.4365911 22.667006 2.2931855 0 27
-9.8123503 23.569592 2.9853148 0 28
-10.138799 24.353731 3.7088273 0 29
-10.422133 25.034311 4.458324 0 30
-9.7447386 21.636066 -1.104709 0 21
-9.4669762 21.019358 -0.53599066 0 22
-9.4447775 20.970072 0.00065658044 0 23
-9.5396233 21.180655 0.54143077 0 24
-9.745245 21.637192 1.1061243 0 25
-10.027059 22.262897 1.7083632 0 26
-10.369689 23.023636 2.3584011 0 27
-10.748989 23.865788 3.0606422 0 28
-11.092936 24.629446 3.7977333 0 29
-11.422264 25.360649 4.5729351 0 30
-10.545463 21.72687 -1.1243346 0 21
-10.220556 21.057465 -0.54421771 0 22
-10.244897 21.107613 0.00066981674 0 23
-10.4089 21.445511 0.55560833 0 24
-10.676931 21.997736 1.1397506 0 25
-10.997435 22.658072 1.7621801 0 26
-11.348676 23.381735 2.4274445 0 27
-11.714824 24.136112 3.1371331 0 28
-12.063562 24.85462 3.8842375 0 29
-12.481046 25.714764 4.699439 0 30
-11.003783 21.107347 -0.55344045 0 22
-11.080085 21.253708 0.00068426167 0 23
-11.31488 21.70409 0.57048547 0 24
-11.616018 22.281731 1.1712549 0 25
-11.953024 22.928173 1.8091201 0 26
-12.317784 23.627851 2.4886706 0 27
-12.68173 24.32597 3.2077935 0 28
-13.044476 25.021782 3.9672313 0 29
-11.812677 21.155384 -0.5633567 0 22
-11.949165 21.39982 0.00069971796 0 23
-12.217857 21.881021 0.58411175 0 24
-12.546179 22.469015 1.1995322 0 25
-12.900015 23.102701 1.8513397 0 26
-13.270034 23.765371 2.5422204 0 27
-13.635947 24.420689 3.2705405 0 28
-14.026341 25.119844 4.0449357 0 29
-12.672228 21.239468 -0.57504344 0 22
-12.834583 21.511587 0.00071512139 0 23
-13.134003 22.013433 0.59746242 0 24
-13.480433 22.59407 1.2263566 0 25
-13.839775 23.196352 1.8898941 0 26
-14.218682 23.831425 2.5918689 0 27
-14.604293 24.477734 3.3329382 0 28
-15.025762 25.184143 4.1230278 0 29
-13.564039 21.319471 -0.58750665 0 22
-13.75856 21.625214 0.0007317235 0 23
-14.075967 22.124102 0.61117804 0 24
-14.434243 22.687227 1.2533808 0 25
-14.801526 23.264509 1.929261 0 26
-15.184972 23.867195 2.6420662 0 27
-15.587281 24.499531 3.3954172 0 28
-16.099297 25.304296 4.2166028 0 29
-14.51533 21.431412 -0.60182297 0 22
-14.716148 21.727913 0.00074918021 0 23
-15.037519 22.202406 0.62500542 0 24
-15.400173 22.737852 1.2800671 0 25
-15.779028 23.297218 1.9687148 0 26
-16.184988 23.896606 2.6956296 0 27
-16.596378 24.504011 3.4606223 0 28
-15.492054 21.517191 -0.61646283 0 22
-15.703953 21.811502 0.00076728576 0 23
-16.038359 22.275965 0.63976955 0 24
-16.39897 22.776823 1.3082168 0 25
-16.786255 23.31473 2.0100758 0 26
-17.196594 23.884659 2.7488201 0 27
-17.63475 24.493221 3.5291185 0 28
-16.520023 21.609518 -0.63243032 0 22
-16.738865 21.895782 0.00078682532 0 23
-17.071335 22.330679 0.65514177 0 24
-17.424942 22.793224 1.3373301 0 25
-17.833738 23.327965 2.0544953 0 26
-18.252872 23.876225 2.8069792 0 27
-18.740036 24.513474 3.608041 0 28
-17.587662 21.687214 -0.64920855 0 22
-17.808739 21.959822 0.00080715987 0 23
-18.143797 22.37298 0.67138261 0 24
-18.525507 22.843664 1.370918 0 25
-18.91065 23.318581 2.1005998 0 26
-19.34779 23.857615 2.8688872 0 27
-19.938257 24.585714 3.7013686 0 28
-18.727869 21.784828 -0.66794443 0 22
-18.940208 22.031828 0.00082944386 0 23
-19.28751 22.43582 0.68959469 0 24
-19.660042 22.86916 1.4057293 0 25
-20.054123 23.327566 2.1523671 0 26
-20.512215 23.860432 2.9388032 0 27
-19.919226 21.868959 -0.68776804 0 22
-20.138401 22.109589 0.00085377775 0 23
-20.465183 22.468359 0.70835507 0 24
-20.847515 22.888113 1.4430759 0 25
-21.273178 23.35544 2.2103584 0 26
-21.764582 23.894943 3.0187411 0 27
-21.176535 21.950026 -0.70913833 0 22
-21.387232 22.168417 0.00087938877 0 23
-21.725208 22.51874 0.72929931 0 24
-22.112015 22.919674 1.4844639 0 25
-22.547264 23.370821 2.2721167 0 26
-23.124258 23.968891 3.1106408 0 27
-22.508484 22.029377 -0.73226917 0 22
-22.719719 22.236116 0.00090756506 0 23
-23.06473 22.573782 0.75220925 0 24
-23.461575 22.962179 1.5301956 0 25
-23.933935 23.424486 2.3431461 0 26
-24.664431 24.139433 3.2233064 0 27
-23.924387 22.107611 -0.75738049 0 22
-24.135929 22.303089 0.00093818305 0 23
-24.489649 22.629948 0.77718002 0 24
-24.914129 23.022194 1.5811907 0 25
-25.419132 23.48885 2.4215574 0 26
-25.424217 22.175838 -0.78439116 0 22
-25.628878 22.354351 0.0009708787 0 23
-26.014479 22.690685 0.80457401 0 24
-26.448231 23.069017 1.6358633 0 25
-26.990847 23.542305 2.505892 0 26
-27.0336 22.246906 -0.81401151 0 22
-27.241377 22.417894 0.0010071775 0 23
-27.625925 22.73435 0.83389091 0 24
-28.084806 23.111982 1.6953657 0 25
-28.700344 23.618528 2.6006057 0 26
-28.762199 22.316956 -0.84642822 0 22
-28.948656 22.461628 0.0010460363 0 23
-29.34754 22.771128 0.86577594 0 24
-29.820971 23.13847 1.7593615 0 25
-30.627068 22.386501 -0.88203895 0 22
-30.785177 22.502069 0.0010886149 0 23
-31.198841 22.804432 0.90071326 0 24
-31.63995 23.126856 1.8267679 0 25
-32.697964 22.490061 -0.92271161 0 22
-32.741344 22.519897 0.0011344675 0 23
-33.150894 22.801594 0.93779165 0 24
-33.590691 23.104088 1.9003321 0 25
-35.097511 22.685476 -0.9716534 0 22
-34.852486 22.527102 0.0011847292 0 23
-35.224197 22.767361 0.97755665 0 24
-37.112949 22.505629 0.0012391034 0 23
-37.454594 22.712805 1.0209457 0 24
-39.575237 22.471968 0.001299246 0 23
-39.85025 22.628128 1.0681062 0 24
-42.248951 22.412485 0.0013653453 0 23
-45.234982 22.357994 0.0014405154 0 23
