# .PCD v0.7 - Point Cloud Data file format
VERSION 0.7
FIELDS x y z intensity ring
SIZE 4 4 4 4 2
TYPE F F F F U
COUNT 1 1 1 1 1
WIDTH 621
HEIGHT 1
VIEWPOINT 0 0 0 1 0 0 0
POINTS 621
DATA ascii
10.905129 21.670769 -14.3873 0 0
10.165445 21.731949 -14.228379 0 0
10.081008 21.551435 -13.371719 0 1
10.168303 21.738058 -12.76188 0 2
9.5333548 22.004238 -14.221671 0 0
9.4147329 21.730444 -13.309668 0 1
9.3194103 21.510426 -12.466096 0 2
9.2837305 21.428072 -11.729539 0 3
8.9302492 22.348843 -14.27288 0 0
8.8107443 22.049768 -13.344887 0 1
8.689044 21.745203 -12.452518 0 2
8.585947 21.48719 -11.622237 0 3
8.5084448 21.293234 -10.856594 0 4
8.5558071 21.411764 -10.267102 0 5
8.3332491 22.726133 -14.355192 0 0
8.2226658 22.424555 -13.42337 0 1
8.1164961 22.135012 -12.537195 0 2
7.9992347 21.81522 -11.670691 0 3
7.8832111 21.498806 -10.841596 0 4
7.7949953 21.258226 -10.082062 0 5
7.757875 21.156994 -9.4119101 0 6
7.8731251 21.471298 -8.9325094 0 7
7.7515244 23.175991 -14.492867 0 0
7.6453514 22.858547 -13.546245 0 1
7.5385818 22.539322 -12.638455 0 2
7.4309387 22.217484 -11.766963 0 3
7.3192425 21.883528 -10.925182 0 4
7.2045064 21.540482 -10.113705 0 5
7.1076694 21.250952 -9.3591146 0 6
7.0484753 21.073971 -8.6794863 0 7
7.0661306 21.126757 -8.1089077 0 8
7.2412457 21.650328 -7.7130666 0 9
7.1558437 23.627687 -14.640883 0 0
7.0635095 23.322813 -13.695607 0 1
6.9642844 22.995184 -12.776742 0 2
6.8638625 22.663605 -11.894017 0 3
6.7563901 22.308743 -11.036124 0 4
6.6436539 21.936502 -10.205923 0 5
6.5280633 21.554838 -9.4065676 0 6
6.4283671 21.225653 -8.6624117 0 7
6.3625412 21.008305 -7.9900694 0 8
6.354804 20.982758 -7.4072199 0 9
6.4129152 21.174633 -6.9056067 0 10
6.5826998 21.735239 -6.5124454 0 11
6.5573664 24.125893 -14.826883 0 0
6.4728618 23.814983 -13.869827 0 1
6.3839374 23.487812 -12.943336 0 2
6.2953234 23.161783 -12.055688 0 3
6.1890383 22.770739 -11.172208 0 4
6.0786304 22.364525 -10.319652 0 5
5.9596562 21.926796 -9.490345 0 6
5.8480926 21.516331 -8.7089615 0 7
5.7472167 21.145185 -7.9761167 0 8
5.6857877 20.919178 -7.3241577 0 9
5.6718559 20.867918 -6.7497158 0 10
5.6931834 20.946388 -6.2245679 0 11
5.7573247 21.182377 -5.7453485 0 12
5.9041009 21.722395 -5.33529 0 13
5.9547544 24.686178 -15.059991 0 0
5.8723707 24.344648 -14.074359 0 1
5.7942891 24.02095 -13.140085 0 2
5.7100048 23.671539 -12.230687 0 3
5.6166129 23.28437 -11.340462 0 4
5.5108976 22.846115 -10.464586 0 5
5.3939247 22.361189 -9.6074047 0 6
5.2746525 21.866732 -8.785903 0 7
5.1599474 21.391207 -8.0097628 0 8
5.0679278 21.009729 -7.3019338 0 9
5.0211225 20.815691 -6.6834631 0 10
5.0021491 20.737036 -6.117178 0 11
5.0072799 20.758307 -5.5890498 0 12
5.0343709 20.870613 -5.0885015 0 13
5.0862989 21.085888 -4.6106119 0 14
5.2195582 21.638332 -4.1924968 0 15
5.2632737 24.937466 -14.323862 0 1
5.1821194 24.552954 -13.344259 0 2
5.1081457 24.202465 -12.42415 0 3
5.0281749 23.823565 -11.528046 0 4
4.9339986 23.377356 -10.63868 0 5
4.8203197 22.838741 -9.749135 0 6
4.7005453 22.27125 -8.8905745 0 7
4.5813046 21.706285 -8.0751867 0 8
4.4804711 21.228537 -7.3302741 0 9
4.4080343 20.885328 -6.6624622 0 10
4.3675714 20.693615 -6.0648985 0 11
4.3478937 20.600382 -5.5106654 0 12
4.3454771 20.588932 -4.9873657 0 13
4.3567319 20.642256 -4.4844227 0 14
4.380127 20.753101 -3.9949806 0 15
4.4301167 20.989956 -3.5257261 0 16
4.5264249 21.446266 -3.0803416 0 17
4.3181629 20.459517 -2.4438493 0 18
4.3794279 20.749792 -1.9794607 0 19
4.5831523 21.71504 -1.5515299 0 20
4.5628343 25.172482 -13.604197 0 2
4.4889016 24.764606 -12.641386 0 3
4.4135785 24.34906 -11.716214 0 4
4.3318114 23.897963 -10.814575 0 5
4.2338357 23.357445 -9.9146051 0 6
4.1242208 22.752718 -9.0318079 0 7
4.0152082 22.15131 -8.1945028 0 8
3.9084938 21.562582 -7.403841 0 9
3.8244767 21.099073 -6.6928792 0 10
3.7703569 20.800503 -6.062017 0 11
3.733974 20.599783 -5.4795837 0 12
3.719142 20.517956 -4.9422836 0 13
3.7159359 20.500269 -4.428586 0 14
3.7201664 20.523607 -3.9286337 0 15
3.7379096 20.621494 -3.4443982 0 16
3.611208 19.922501 -2.8454256 0 17
3.6253936 20.000761 -2.3756461 0 18
3.6532166 20.154257 -1.91186 0 19
3.6884623 20.3487 -1.4457471 0 20
3.7492568 20.684095 -0.97863239 0 21
3.9029944 21.532244 -0.50879228 0 22
3.9355977 21.712111 0.0006299463 0 23
3.8527036 21.254795 0.50347036 0 24
3.8697679 21.348938 1.0113298 0 25
4.0415177 22.296455 1.5854326 0 26
3.8578267 21.28306 3.5561676 0 30
3.7661216 20.777136 3.9784126 0 31
3.8568931 25.411901 -12.909989 0 3
3.7832448 24.926655 -11.936983 0 4
3.7121356 24.458138 -11.015328 0 5
3.6351182 23.950693 -10.117975 0 6
3.5486219 23.380795 -9.2368975 0 7
3.4550619 22.764357 -8.3811588 0 8
3.3605833 22.141867 -7.5665169 0 9
3.2714143 21.554358 -6.8047185 0 10
3.2033226 21.105722 -6.1216574 0 11
3.1568556 20.799566 -5.506361 0 12
3.1303155 20.624702 -4.9443216 0 13
3.1210184 20.563446 -4.4210649 0 14
3.1150062 20.523832 -3.9099548 0 15
3.0083756 19.821276 -3.294961 0 16
3.0018694 19.77841 -2.8113844 0 17
3.0049415 19.798649 -2.3404334 0 18
3.0151415 19.865854 -1.8755213 0 19
3.0319712 19.976742 -1.4125563 0 20
3.0530484 20.115612 -0.94720006 0 21
2.9737897 19.593399 -0.46077242 0 22
2.9165246 19.216099 0.00055487116 0 23
2.8886027 19.032129 0.44867289 0 24
2.8889673 19.034531 0.89739603 0 25
2.914906 19.205433 1.3591317 0 26
2.9749994 19.601372 1.8516936 0 27
3.0984793 20.414942 2.4144814 0 28
3.1265876 20.60014 2.9294014 0 29
3.0907989 20.364338 3.3864441 0 30
3.0645604 20.191462 3.8478427 0 31
3.1368799 25.598171 -12.210424 0 4
3.0673337 25.030647 -11.228904 0 5
3.0054922 24.525997 -10.320327 0 6
2.939352 23.986269 -9.4388866 0 7
2.8712382 23.430431 -8.5925131 0 8
2.8022931 22.867813 -7.7839069 0 9
2.7362921 22.32922 -7.0216608 0 10
2.6712496 21.798447 -6.2977519 0 11
2.6104083 21.301956 -5.6172161 0 12
2.5707679 20.978476 -5.0093827 0 13
2.547657 20.789883 -4.4521961 0 14
2.5097125 20.48024 -3.8863287 0 15
2.42699 19.805193 -3.2793591 0 16
2.4218588 19.763319 -2.7982078 0 17
2.4187994 19.738354 -2.3241432 0 18
2.4201221 19.749147 -1.8571815 0 19
2.3980181 19.568769 -1.378275 0 20
2.3143404 18.885925 -0.88580471 0 21
2.2647893 18.481571 -0.43291914 0 22
2.23875 18.269079 0.00052545418 0 23
2.2210073 18.124292 0.42559329 0 24
2.2207181 18.121931 0.85101593 0 25
2.2336695 18.227621 1.2848684 0 26
2.2577426 18.424067 1.7336419 0 27
2.3104849 18.854464 2.2211666 0 28
2.4063294 19.636593 2.7814171 0 29
2.448982 19.984655 3.3102553 0 30
2.4397583 19.909386 3.7791893 0 31
2.4036384 25.70295 -11.494825 0 5
2.3366368 24.986477 -10.481561 0 6
2.2878041 24.464294 -9.597208 0 7
2.2386613 23.938791 -8.7517776 0 8
2.1895943 23.414101 -7.9451962 0 9
2.148582 22.975542 -7.2025485 0 10
2.1157961 22.624952 -6.5163112 0 11
2.1135833 22.60129 -5.9414029 0 12
2.012346 21.518724 -4.5940199 0 14
1.8805569 20.109457 -3.8041618 0 15
1.8659232 19.952972 -3.293606 0 16
1.8561138 19.848078 -2.8015132 0 17
1.8479971 19.761282 -2.3196433 0 18
1.822466 19.48827 -1.8269784 0 19
1.7490107 18.702785 -1.3132058 0 20
1.7051375 18.233633 -0.85256422 0 21
1.6777215 17.940466 -0.41894379 0 22
1.6611705 17.763479 0.00050933129 0 23
1.6545852 17.693062 0.41418162 0 24
1.6525301 17.671083 0.82727617 0 25
1.6585304 17.735249 1.2462927 0 26
1.6715345 17.874306 1.6767071 0 27
1.6979553 18.156832 2.1323631 0 28
1.7417556 18.625204 2.6299965 0 29
1.8272061 19.538958 3.2264159 0 30
1.8494358 19.776667 3.7423813 0 31
1.9383641 29.985043 -17.819685 0 0
1.935089 29.934378 -16.858536 0 1
1.9330592 29.902979 -15.934813 0 2
1.9310168 29.871384 -15.035028 0 3
1.9285901 29.833845 -14.154677 0 4
1.9269395 29.808311 -13.300611 0 5
1.9261619 29.796282 -12.4709 0 6
1.6136086 24.961317 -9.7699995 0 7
1.5749999 24.364071 -8.8870716 0 8
1.5383949 23.797819 -8.057106 0 9
1.509316 23.347988 -7.302721 0 10
1.4941416 23.113253 -6.6418643 0 11
1.9190258 29.685894 -7.7861123 0 12
1.9176134 29.664045 -7.0454631 0 13
1.9164956 29.646751 -6.3149261 0 14
1.3256459 20.50675 -3.8705285 0 15
1.3076105 20.227757 -3.331398 0 16
1.2947953 20.029514 -2.8207164 0 17
1.28448 19.869944 -2.3271132 0 18
1.2185781 18.850491 -1.7631838 0 19
1.1791662 18.24082 -1.277867 0 20
1.1553844 17.872932 -0.83380497 0 21
1.1397812 17.631563 -0.41079739 0 22
1.1303504 17.485674 0.00050022977 0 23
1.1261687 17.420986 0.40688846 0 24
1.1252906 17.407404 0.81308532 0 25
1.1280234 17.449678 1.2234466 0 26
1.1364812 17.580513 1.6454109 0 27
1.1504958 17.797308 2.0854039 0 28
1.1739562 18.160223 2.5585275 0 29
1.2144367 18.786427 3.0951233 0 30
1.2771435 19.756453 3.7300849 0 31
1.0260783 28.597811 -16.970785 0 0
1.0257403 28.58839 -16.077301 0 1
1.0263516 28.605425 -15.221404 0 2
1.0254446 28.580149 -14.36439 0 3
1.0256485 28.585831 -13.543015 0 4
1.0258378 28.591106 -12.739107 0 5
1.0262551 28.602739 -11.954107 0 6
1.0252706 28.575298 -11.168417 0 7
1.0257756 28.589371 -10.413273 0 8
0.8773815 24.453484 -8.2671633 0 9
0.85901171 23.9415 -7.4775686 0 10
1.0257514 28.588697 -8.2034616 0 11
1.0254068 28.579096 -7.4850183 0 12
1.0260751 28.597721 -6.7824163 0 13
1.0256715 28.586472 -6.0803075 0 14
0.77768731 21.67491 -4.0851173 0 15
0.74630696 20.800308 -3.4207585 0 16
0.73329794 20.437735 -2.8740582 0 17
0.69719732 19.431574 -2.2724936 0 18
0.66543615 18.54636 -1.7322375 0 19
0.64705163 18.033964 -1.2615554 0 20
0.63527018 17.705605 -0.82480866 0 21
0.62672877 17.467546 -0.40638956 0 22
0.62272161 17.355864 0.00049580069 0 23
0.6204139 17.291544 0.4032833 0 24
0.61950415 17.266188 0.8053273 0 25
0.62111425 17.311064 1.2119792 0 26
0.62442714 17.403397 1.6264874 0 27
0.63207191 17.616465 2.0612395 0 28
0.64305484 17.922569 2.5214074 0 29
0.66127199 18.4303 3.0320754 0 30
0.69833326 19.463234 3.6694295 0 31
0.20293182 28.287006 -16.775982 0 0
0.20292144 28.285559 -15.897178 0 1
0.20297538 28.293077 -15.045905 0 2
0.20303512 28.301405 -14.215511 0 3
0.20303926 28.301981 -13.400259 0 4
0.20302413 28.299873 -12.601561 0 5
0.20299371 28.295631 -11.818456 0 6
0.20308058 28.307743 -11.057014 0 7
0.20306063 28.30496 -10.303316 0 8
0.20313537 28.315378 -9.5668716 0 9
0.20307721 28.307272 -8.8356581 0 10
0.20304812 28.303217 -8.1165295 0 11
0.2031526 28.31778 -7.4119997 0 12
0.20316111 28.318966 -6.7121587 0 13
0.20311028 28.31188 -6.0181847 0 14
0.19929071 27.779465 -5.2324243 0 15
0.1993227 27.783924 -4.566443 0 16
0.14910048 20.783365 -2.9208584 0 17
0.13830389 19.27841 -2.2531896 0 18
0.13216101 18.422144 -1.7195734 0 19
0.12891358 17.969481 -1.2562684 0 20
0.12648331 17.63072 -0.82081318 0 21
0.12503132 17.428326 -0.40522677 0 22
0.12406226 17.293247 0.00049370702 0 23
0.12379469 17.255949 0.40220463 0 24
0.12364641 17.235279 0.80338937 0 25
0.12394542 17.276958 1.2088448 0 26
0.12450065 17.354353 1.6209024 0 27
0.12591358 17.551304 2.0523474 0 28
0.12817796 17.86694 2.5120292 0 29
0.1315252 18.333517 3.014291 0 30
0.13846932 19.30147 3.6366856 0 31
-0.60990685 28.341747 -16.811907 0 0
-0.60979146 28.336384 -15.92902 0 1
-0.61026609 28.358442 -15.083768 0 2
-0.61009079 28.350294 -14.242998 0 3
-0.61033171 28.361488 -13.431198 0 4
-0.61028177 28.359169 -12.630563 0 5
-0.61003637 28.347765 -11.842667 0 6
-0.61018312 28.354586 -11.077591 0 7
-0.61062533 28.375135 -10.330986 0 8
-0.61046684 28.367767 -9.586545 0 9
-0.61054039 28.371187 -8.8574305 0 10
-0.61058289 28.373161 -8.1382618 0 11
-0.61090815 28.388277 -7.4319811 0 12
-0.61097074 28.391184 -6.7306604 0 13
-0.6111846 28.401123 -6.0383968 0 14
-0.59891057 27.830761 -5.2431645 0 15
-0.59901679 27.835697 -4.5758934 0 16
-0.45108145 20.961292 -2.9464703 0 17
-0.4168857 19.372252 -2.2646234 0 18
-0.3979513 18.49239 -1.7264856 0 19
-0.38755924 18.009481 -1.259324 0 20
-0.38078797 17.694826 -0.82396722 0 21
-0.37585825 17.465748 -0.40618044 0 22
-0.37299609 17.332747 0.00049493654 0 23
-0.37172922 17.273876 0.40270537 0 24
-0.37117788 17.248257 0.8041597 0 25
-0.37235534 17.302971 1.2109139 0 26
-0.37459126 17.406872 1.6261424 0 27
-0.37854314 17.590511 2.0573556 0 28
-0.38543132 17.910599 2.5186858 0 29
-0.3964569 18.422947 3.0296178 0 30
-0.41793269 19.420904 3.6599417 0 31
-1.4451604 28.760004 -17.077581 0 0
-1.4458132 28.772997 -16.191114 0 1
-1.4460199 28.777111 -15.322222 0 2
-1.4474967 28.806498 -14.487098 0 3
-1.4465272 28.787207 -13.646847 0 4
-1.4475116 28.806797 -12.84314 0 5
-1.4473746 28.80407 -12.045688 0 6
-1.4488451 28.833334 -11.276231 0 7
-1.4488071 28.832579 -10.508347 0 8
-1.4492009 28.840416 -9.7563076 0 9
-1.4494262 28.844898 -9.0145969 0 10
-1.4497354 28.851053 -8.2838583 0 11
-1.4503286 28.862858 -7.5640073 0 12
-1.450236 28.861015 -6.8490896 0 13
-1.4517592 28.891327 -6.1489463 0 14
-1.4158638 28.176977 -5.3138571 0 15
-1.4165117 28.189869 -4.6388884 0 16
-1.0966434 21.824202 -3.0709264 0 17
-0.99297953 19.761196 -2.3124702 0 18
-0.94328409 18.772211 -1.7544154 0 19
-0.91447407 18.198866 -1.2738775 0 20
-0.89693397 17.849802 -0.83203977 0 21
-0.8850652 17.613602 -0.4100408 0 22
-0.87782818 17.46958 0.00049935753 0 23
-0.87394965 17.392393 0.40588593 0 24
-0.87294489 17.372396 0.81078166 0 25
-0.87594736 17.43215 1.2212106 0 26
-0.88164544 17.545546 1.6407852 0 27
-0.89229387 17.75746 2.0790205 0 28
-0.91014284 18.112671 2.5497255 0 29
-0.93935889 18.694096 3.077374 0 30
-1.001074 19.922283 3.7582951 0 31
-2.3018692 29.115044 -4.8000283 0 16
-2.3036251 29.137251 -4.1075716 0 17
-1.6306767 20.625507 -2.4180934 0 18
-1.528988 19.339304 -1.8107702 0 19
-1.4710383 18.606333 -1.3048171 0 20
-1.4355516 18.157482 -0.84795302 0 21
-1.4135822 17.879602 -0.41700596 0 22
-1.4012903 17.724131 0.00050757424 0 23
-1.394297 17.635675 0.41232744 0 24
-1.3938491 17.630011 0.82433212 0 25
-1.3985482 17.689445 1.2415361 0 26
-1.4102777 17.837807 1.671213 0 27
-1.4293313 18.078804 2.1205726 0 28
-1.4642866 18.520933 2.6120369 0 29
-1.5300906 19.353251 3.1917968 0 30
-1.6915221 21.395107 4.043633 0 31
-2.2064757 20.429497 -1.9179858 0 19
-2.0939815 19.387926 -1.3632812 0 20
-2.0238299 18.738401 -0.87743306 0 21
-1.9855193 18.383686 -0.42991465 0 22
-1.9622774 18.168493 0.00052169757 0 23
-1.950992 18.064003 0.42347658 0 24
-1.9489834 18.045406 0.84602183 0 25
-1.9578685 18.12767 1.2757113 0 26
-1.9817528 18.348814 1.7237077 0 27
-2.0205591 18.708117 2.200284 0 28
-2.0970237 19.416094 2.7456398 0 29
-2.2500834 20.833254 3.4451146 0 30
-2.816155 20.536741 -1.4491476 0 20
-2.7296999 19.906271 -0.9354021 0 21
-2.6508851 19.331516 -0.45367256 0 22
-2.6057639 19.00247 0.00054756663 0 23
-2.5822947 18.831322 0.44301987 0 24
-2.5820615 18.82962 0.88589752 0 25
-2.5997491 18.958609 1.3388866 0 26
-2.6496456 19.322477 1.821568 0 27
-2.7421072 19.99675 2.3601253 0 28
-2.9827363 21.751534 3.0867293 0 29
-3.4224863 20.557819 -1.4569658 0 20
-3.3512633 20.130007 -0.95004368 0 21
-3.308049 19.870432 -0.46835497 0 22
-3.2901051 19.762648 0.00057195686 0 23
-3.2867551 19.742525 0.46648353 0 24
-3.3037593 19.844664 0.93772793 0 25
-3.3366199 20.042048 1.4215779 0 26
-3.3964055 20.401161 1.9316512 0 27
-3.5900235 21.564165 2.5562277 0 28
-4.0347724 20.57338 -1.4656713 0 20
-3.9459507 20.120476 -0.95454538 0 21
-3.9021139 19.896952 -0.47142547 0 22
-3.87918 19.780012 0.00057544437 0 23
-3.8774514 19.771196 0.46959692 0 24
-3.8965001 19.868326 0.94374156 0 25
-3.938693 20.083469 1.4319439 0 26
-4.0141745 20.468351 1.9481184 0 27
-4.5694346 20.210974 -0.96466273 0 21
-4.5064716 19.932482 -0.47513589 0 22
-4.4792447 19.812056 0.00057987752 0 23
-4.4781132 19.807051 0.47330603 0 24
-4.5016117 19.910986 0.95151252 0 25
-4.5487685 20.119566 1.4432309 0 26
-5.4423966 21.222147 -1.0199605 0 21
-5.3178492 20.736485 -0.49773407 0 22
-5.2697897 20.54908 0.00060562656 0 23
-5.2643714 20.527952 0.49393937 0 24
-5.3054042 20.687956 0.99550879 0 25
-5.4059472 21.080015 1.5226283 0 26
-6.1175017 21.295952 -1.0315206 0 21
-5.9540548 20.726969 -0.50140059 0 22
-5.9010453 20.542433 0.00061017054 0 23
-5.8950858 20.521687 0.49765447 0 24
-5.9325876 20.652239 1.0015703 0 25
-6.0426764 21.035473 1.5313064 0 26
-6.3707099 22.177406 2.155092 0 27
-6.5679798 22.864134 2.7816522 0 28
-6.6891799 23.286049 3.4062533 0 29
-6.8982134 24.013727 4.1077647 0 30
-6.8113742 21.38003 -1.0446314 0 21
-6.6278458 20.803957 -0.50765526 0 22
-6.5627213 20.599539 0.0006172068 0 23
-6.5506301 20.561586 0.50297379 0 24
-6.5930133 20.694622 1.012385 0 25
-6.7122555 21.068909 1.5471261 0 26
-6.9991899 21.969557 2.1535265 0 27
-7.2657976 22.806406 2.7988448 0 28
-7.4366302 23.342627 3.4443297 0 29
-7.6096339 23.885662 4.1215177 0 30
-7.5257492 21.472174 -1.05925 0 21
-7.3212538 20.888714 -0.5146386 0 22
-7.2401218 20.657232 0.00062490365 0 23
-7.2361307 20.645844 0.5099048 0 24
-7.2960281 20.81674 1.0281788 0 25
-7.4494486 21.254475 1.5758024 0 26
-7.743053 22.092175 2.1864276 0 27
-8.0652599 23.011484 2.8512435 0 28
-8.3005266 23.682737 3.5282116 0 29
-8.5146618 24.293699 4.2323465 0 30
-8.2442951 21.523357 -1.0730048 0 21
-8.0268898 20.955778 -0.5217514 0 22
-7.9512396 20.758278 0.00063460204 0 23
-7.9619036 20.786119 0.51879889 0 24
-8.05054 21.017523 1.0490752 0 25
-8.2427549 21.519339 1.6123135 0 26
-8.5593901 22.345974 2.2349362 0 27
-8.9127512 23.268496 2.9135816 0 28
-9.2105665 24.046 3.620218 0 29
-9.4554787 24.685392 4.3460708 0 30
-8.9857473 21.584063 -1.0884389 0 21
-8.7403307 20.994564 -0.52874452 0 22
-8.6775503 20.843765 0.00064456317 0 23
-8.7320042 20.974564 0.52953875 0 24
-8.8675508 21.300152 1.0754421 0 25
-9.1099663 21.882441 1.6584239 0 26
-9.4428825 22.682117 2.2947142 0 27
-9.8160915 23.578577 2.9864528 0 28
-10.148025 24.375891 3.7122021 0 29
-10.423662 25.037983 4.4589777 0 30
-9.7387695 21.622816 -1.1040324 0 21
-9.4704676 21.027109 -0.5361883 0 22
-9.4404135 20.960381 0.000656277 0 23
-9.5442963 21.191031 0.54169601 0 24
-9.7522373 21.652718 1.106918 0 25
-10.046899 22.306948 1.7117435 0 26
-10.37911 23.044554 2.3605437 0 27
-10.752347 23.873243 3.0615985 0 28
-11.096269 24.636847 3.7988744 0 29
-11.433237 25.38501 4.5773277 0 30
-10.537551 21.710571 -1.123491 0 21
-10.21347 21.042864 -0.54384035 0 22
-10.243753 21.105259 0.000669742 0 23
-10.414327 21.456692 0.55589801 0 24
-10.670592 21.984676 1.139074 0 25
-10.999329 22.661974 1.7624836 0 26
-11.35464 23.394024 2.4287202 0 27
-11.711835 24.129953 3.1363325 0 28
-12.069543 24.866941 3.886163 0 29
-12.479996 25.712599 4.6990438 0 30
-11.00155 21.103064 -0.5533281 0 22
-11.074863 21.243692 0.0006839392 0 23
-11.312878 21.700251 0.5703845 0 24
-11.622694 22.294537 1.1719279 0 25
-11.96221 22.945791 1.8105103 0 26
-12.314485 23.621523 2.488004 0 27
-12.671409 24.30617 3.2051826 0 28
-13.054798 25.041584 3.9703708 0 29
-11.819645 21.167862 -0.56368905 0 22
-11.945776 21.393749 0.00069951941 0 23
-12.224051 21.892113 0.58440787 0 24
-12.550838 22.47736 1.1999776 0 25
-12.900167 23.102976 1.8513615 0 26
-13.267954 23.761644 2.5418217 0 27
-13.643495 24.434204 3.2723505 0 28
-14.02722 25.12142 4.0451889 0 29
-12.667146 21.230951 -0.57481283 0 22
-12.843974 21.527327 0.00071564456 0 23
-13.142416 22.027534 0.59784508 0 24
-13.484451 22.600807 1.2267222 0 25
-13.852093 23.216997 1.8915762 0 26
-14.218633 23.831343 2.5918598 0 27
-14.600548 24.471457 3.3320837 0 28
-15.037614 25.204008 4.1262798 0 29
-13.567969 21.325649 -0.58767688 0 22
-13.770608 21.644148 0.00073236425 0 23
-14.081731 22.13316 0.61142832 0 24
-14.427996 22.677408 1.2528383 0 25
-14.802552 23.266123 1.9293947 0 26
-15.194885 23.882778 2.6437912 0 27
-15.589377 24.502827 3.395874 0 28
-16.095814 25.298826 4.2156911 0 29
-14.500966 21.410202 -0.6012274 0 22
-14.719413 21.732733 0.00074934633 0 23
-15.037452 22.202307 0.62500268 0 24
-15.405453 22.745647 1.2805059 0 25
-15.784785 23.305719 1.9694332 0 26
-16.181559 23.891542 2.6950583 0 27
-16.603184 24.514059 3.4620414 0 28
-15.492106 21.517265 -0.61646491 0 22
-15.708239 21.817455 0.00076749519 0 23
-16.043219 22.282715 0.63996345 0 24
-16.395185 22.771566 1.3079149 0 25
-16.790379 23.320457 2.0105696 0 26
-17.193514 23.880381 2.7483277 0 27
-17.643373 24.505198 3.5308442 0 28
-16.509645 21.595943 -0.63203299 0 22
-16.734072 21.889511 0.00078659994 0 23
-17.069351 22.328085 0.6550656 0 24
-17.438461 22.810909 1.3383677 0 25
-17.831755 23.325371 2.0542669 0 26
-18.243982 23.864597 2.8056123 0 27
-18.741348 24.51519 3.6082935 0 28
-17.593283 21.694145 -0.64941603 0 22
-17.817966 21.971199 0.00080757809 0 23
-18.147104 22.377058 0.67150497 0 24
-18.514648 22.830273 1.3701144 0 25
-18.913042 23.321531 2.1008656 0 26
-19.351088 23.861681 2.8693762 0 27
-19.943415 24.592075 3.7023261 0 28
-18.735029 21.793156 -0.66819978 0 22
-18.941528 22.033361 0.00082950166 0 23
-19.28318 22.430782 0.68943983 0 24
-19.650454 22.858007 1.4050437 0 25
-20.060225 23.334663 2.1530221 0 26
-20.517059 23.866068 2.9394972 0 27
-19.923014 21.873119 -0.68789887 0 22
-20.134125 22.104895 0.00085359649 0 23
-20.472942 22.476875 0.70862359 0 24
-20.849449 22.890236 1.4432096 0 25
-21.257917 23.338686 2.2087727 0 26
-21.754717 23.884113 3.0173731 0 27
-21.176035 21.949507 -0.70912158 0 22
-21.387627 22.168827 0.00087940501 0 23
-21.735508 22.529415 0.72964501 0 24
-22.111319 22.918953 1.4844172 0 25
-22.555399 23.379255 2.2729366 0 26
-23.130501 23.975361 3.1114805 0 27
-22.493111 22.01433 -0.73176908 0 22
-22.716125 22.232597 0.00090742146 0 23
-23.057312 22.566523 0.75196731 0 24
-23.474396 22.974728 1.5310318 0 25
-23.941206 23.431602 2.343858 0 26
-24.655333 24.130529 3.2221177 0 27
-23.925028 22.108204 -0.75740075 0 22
-24.124958 22.292952 0.00093775662 0 23
-24.482153 22.62302 0.77694213 0 24
-24.908117 23.01664 1.5808092 0 25
-25.409779 23.480204 2.4206662 0 26
-25.427124 22.178375 -0.78448087 0 22
-25.63048 22.355747 0.00097093941 0 23
-26.009583 22.686415 0.80442262 0 24
-26.444839 23.066059 1.6356535 0 25
-26.986069 23.538137 2.5054486 0 26
-27.041195 22.253157 -0.81424022 0 22
-27.231871 22.41007 0.0010068261 0 23
-27.629347 22.737167 0.83399427 0 24
-28.078869 23.107096 1.6950072 0 25
-28.698233 23.616791 2.6004143 0 26
-28.755114 22.311457 -0.84621966 0 22
-28.944216 22.458183 0.0010458758 0 23
-29.348904 22.772186 0.86581618 0 24
-29.815228 23.134012 1.7590227 0 25
-30.61648 22.378761 -0.88173401 0 22
-30.792507 22.507427 0.0010888742 0 23
-31.196188 22.802494 0.90063673 0 24
-31.640091 23.126959 1.8267761 0 25
-32.717552 22.503534 -0.92326444 0 22
-32.729862 22.512001 0.0011340698 0 23
-33.137012 22.792044 0.93739885 0 24
-33.579918 23.09668 1.8997226 0 25
-35.139172 22.712404 -0.97280675 0 22
-34.834129 22.515238 0.0011841053 0 23
-35.227215 22.76931 0.97764039 0 24
-37.109665 22.503635 0.0012389937 0 23
-37.459072 22.715521 1.0210677 0 24
-39.570633 22.469353 0.0012990949 0 23
-39.842152 22.623531 1.0678892 0 24
-42.259052 22.417843 0.0013656717 0 23
-45.228985 22.35503 0.0014403245 0 23
