# .PCD v0.7 - Point Cloud Data file format
VERSION 0.7
FIELDS x y z intensity ring
SIZE 4 4 4 4 2
TYPE F F F F U
COUNT 1 1 1 1 1
WIDTH 621
HEIGHT 1
VIEWPOINT 0 0 0 1 0 0 0
POINTS 621
DATA ascii
10.905824 21.672148 -14.388216 0 0
10.164 21.728857 -14.226355 0 0
10.083244 21.556217 -13.374686 0 1
10.168802 21.739124 -12.762506 0 2
9.5281687 21.992268 -14.213935 0 0
9.412447 21.725168 -13.306436 0 1
9.3157978 21.502089 -12.461265 0 2
9.2861252 21.433599 -11.732565 0 3
8.9295635 22.347128 -14.271785 0 0
8.8051138 22.035679 -13.336359 0 1
8.6931343 21.75544 -12.458381 0 2
8.5903902 21.49831 -11.628252 0 3
8.5115089 21.300903 -10.860505 0 4
8.554513 21.408525 -10.26555 0 5
8.3319235 22.722517 -14.352908 0 0
8.2214375 22.421204 -13.421365 0 1
8.109004 22.11458 -12.525622 0 2
7.9968748 21.808784 -11.667249 0 3
7.8869052 21.508881 -10.846676 0 4
7.7938557 21.255117 -10.080587 0 5
7.7574687 21.155886 -9.411417 0 6
7.8714151 21.466637 -8.9305696 0 7
7.7448874 23.156147 -14.480457 0 0
7.6439333 22.854307 -13.543733 0 1
7.5431099 22.552858 -12.646046 0 2
7.4244256 22.198009 -11.756649 0 3
7.3136525 21.866814 -10.916839 0 4
7.2046456 21.540897 -10.1139 0 5
7.1064396 21.247276 -9.3574953 0 6
7.0466628 21.06855 -8.6772547 0 7
7.0641456 21.120821 -8.1066294 0 8
7.2358131 21.634085 -7.7072797 0 9
7.1538811 23.621208 -14.636868 0 0
7.0583134 23.305656 -13.685533 0 1
6.964654 22.996405 -12.77742 0 2
6.8599281 22.650612 -11.887199 0 3
6.7515535 22.292774 -11.028224 0 4
6.6374831 21.916128 -10.196445 0 5
6.5285764 21.556532 -9.4073067 0 6
6.4292293 21.228498 -8.6635733 0 7
6.3622441 21.007324 -7.989697 0 8
6.3528309 20.976242 -7.4049201 0 9
6.4141316 21.17865 -6.9069171 0 10
6.5806599 21.728504 -6.5104275 0 11
6.5570507 24.124733 -14.82617 0 0
6.4726524 23.814215 -13.869379 0 1
6.3896523 23.508839 -12.954923 0 2
6.2946596 23.159342 -12.054418 0 3
6.1898265 22.773638 -11.17363 0 4
6.0782762 22.363224 -10.319051 0 5
5.9627528 21.938189 -9.4952755 0 6
5.8498955 21.522963 -8.7116461 0 7
5.7473249 21.145586 -7.9762669 0 8
5.6878524 20.926773 -7.326817 0 9
5.667809 20.853029 -6.7449002 0 10
5.6947432 20.952127 -6.2262735 0 11
5.7559667 21.17738 -5.7439928 0 12
5.9000707 21.707569 -5.3316483 0 13
5.9514494 24.672478 -15.051633 0 0
5.8740191 24.35148 -14.078309 0 1
5.7918248 24.010735 -13.134497 0 2
5.7081976 23.664047 -12.226816 0 3
5.6168714 23.285442 -11.340983 0 4
5.5099721 22.842278 -10.462829 0 5
5.3942528 22.362551 -9.6079893 0 6
5.2764564 21.874208 -8.7889071 0 7
5.1614432 21.397408 -8.012084 0 8
5.0679202 21.009697 -7.3019228 0 9
5.0194125 20.808603 -6.6811872 0 10
4.9989033 20.723579 -6.1132083 0 11
5.0088944 20.764999 -5.5908518 0 12
5.0340157 20.869143 -5.0881429 0 13
5.0861878 21.085428 -4.6105113 0 14
5.2126403 21.609652 -4.1869397 0 15
5.2628655 24.935532 -14.322752 0 1
5.1853261 24.568148 -13.352516 0 2
5.1100368 24.211428 -12.42875 0 3
5.0256062 23.811392 -11.522156 0 4
4.9304991 23.360773 -10.631135 0 5
4.8216863 22.845217 -9.7518988 0 6
4.7013803 22.275208 -8.8921537 0 7
4.5779533 21.690407 -8.0692797 0 8
4.4804964 21.228655 -7.3303151 0 9
4.4098325 20.893848 -6.6651802 0 10
4.3615937 20.665293 -6.0565972 0 11
4.3452172 20.5877 -5.5072727 0 12
4.3460474 20.591633 -4.9880199 0 13
4.3566122 20.641689 -4.4842997 0 14
4.3819718 20.761845 -3.9966636 0 15
4.4306688 20.992571 -3.5261652 0 16
4.525919 21.443869 -3.0799975 0 17
4.3102899 20.422215 -2.4393938 0 18
4.3761821 20.734411 -1.9779935 0 19
4.563952 21.624067 -1.54503 0 20
4.564187 25.179945 -13.608231 0 2
4.4885516 24.762676 -12.640401 0 3
4.4144669 24.35396 -11.718573 0 4
4.331759 23.897675 -10.814445 0 5
4.2346244 23.361795 -9.9164515 0 6
4.1250677 22.757387 -9.0336618 0 7
4.0120625 22.133955 -8.1880836 0 8
3.9065406 21.551807 -7.4001412 0 9
3.8250253 21.1021 -6.6938391 0 10
3.7663155 20.778206 -6.0555191 0 11
3.7358403 20.610079 -5.4823227 0 12
3.7182691 20.513142 -4.941124 0 13
3.7129285 20.483679 -4.4250021 0 14
3.720072 20.523087 -3.9285338 0 15
3.7386491 20.625574 -3.4450796 0 16
3.6112595 19.922785 -2.8454661 0 17
3.6252897 20.000187 -2.3755782 0 18
3.6515763 20.145206 -1.9110016 0 19
3.6913426 20.364592 -1.4468763 0 20
3.7490919 20.683186 -0.9785893 0 21
3.8895612 21.458134 -0.5070411 0 22
3.9104588 21.573423 0.00062592252 0 23
3.8340733 21.152016 0.50103581 0 24
3.8527317 21.254951 1.0068774 0 25
4.0054212 22.097315 1.5712724 0 26
3.8468919 21.222734 3.5460875 0 30
3.7611096 20.749485 3.9731178 0 31
3.8560479 25.406332 -12.90716 0 3
3.7832816 24.926897 -11.937099 0 4
3.7142012 24.471746 -11.021457 0 5
3.6333406 23.93898 -10.113028 0 6
3.5484972 23.379974 -9.2365732 0 7
3.4563596 22.772907 -8.3843069 0 8
3.3596287 22.135576 -7.5643678 0 9
3.2719686 21.55801 -6.805872 0 10
3.20011 21.084555 -6.1155176 0 11
3.1572027 20.801853 -5.5069666 0 12
3.1314986 20.632496 -4.9461899 0 13
3.1162241 20.531857 -4.4142733 0 14
3.1151516 20.52479 -3.9101374 0 15
3.0059302 19.805164 -3.2922828 0 16
3.0013814 19.775192 -2.8109272 0 17
3.0038822 19.79167 -2.3396082 0 18
3.015305 19.866932 -1.8756232 0 19
3.0318205 19.975748 -1.4124861 0 20
3.0519147 20.108141 -0.94684833 0 21
2.9660397 19.542337 -0.4595716 0 22
2.9087129 19.164629 0.00055338501 0 23
2.8833823 18.997734 0.44786203 0 24
2.886488 19.018196 0.89662588 0 25
2.9100502 19.173441 1.3568676 0 26
2.972219 19.58305 1.8499629 0 27
3.0944815 20.388601 2.4113662 0 28
3.1219914 20.569857 2.9250953 0 29
3.0891013 20.353153 3.384584 0 30
3.064054 20.188124 3.8472071 0 31
3.135288 25.58518 -12.204227 0 4
3.0657685 25.017876 -11.223174 0 5
3.005636 24.52717 -10.320821 0 6
2.9380636 23.975754 -9.4347486 0 7
2.8744779 23.456867 -8.6022081 0 8
2.8026335 22.87059 -7.7848525 0 9
2.7364471 22.330484 -7.0220585 0 10
2.6738775 21.819891 -6.3039479 0 11
2.6118915 21.314062 -5.6204081 0 12
2.5721667 20.989889 -5.0121078 0 13
2.5487304 20.798641 -4.4540715 0 14
2.5088832 20.473473 -3.8850448 0 15
2.4282732 19.815664 -3.2810929 0 16
2.4212253 19.75815 -2.7974761 0 17
2.419713 19.74581 -2.325021 0 18
2.4193177 19.742584 -1.8565643 0 19
2.3927183 19.52552 -1.3752289 0 20
2.3109195 18.858011 -0.88449544 0 21
2.2616472 18.455929 -0.43231851 0 22
2.2341006 18.23114 0.00052436296 0 23
2.2204435 18.119692 0.42548522 0 24
2.2194824 18.111849 0.85054243 0 25
2.2308674 18.204754 1.2832565 0 26
2.2560565 18.410309 1.7323474 0 27
2.3087301 18.840143 2.2194796 0 28
2.4036748 19.614931 2.7783489 0 29
2.4477484 19.97459 3.308588 0 30
2.4392462 19.905207 3.7783961 0 31
2.4055071 25.722933 -11.503762 0 5
2.3371739 24.992222 -10.483971 0 6
2.2882018 24.468544 -9.598876 0 7
2.2388237 23.940527 -8.7524118 0 8
2.190747 23.426426 -7.949379 0 9
2.1466641 22.955034 -7.1961198 0 10
2.1142771 22.608707 -6.5116329 0 11
2.1160893 22.628088 -5.9484472 0 12
2.0120847 21.51593 -4.5934234 0 14
1.8801177 20.104757 -3.803273 0 15
1.8656359 19.9499 -3.2930987 0 16
1.8556693 19.843325 -2.8008423 0 17
1.8475958 19.756992 -2.3191397 0 18
1.8189929 19.45113 -1.8234967 0 19
1.7463312 18.674133 -1.3111941 0 20
1.7035624 18.216791 -0.85177666 0 21
1.6757939 17.919853 -0.41846246 0 22
1.6612462 17.76429 0.00050935452 0 23
1.6535093 17.681555 0.41391227 0 24
1.6514707 17.659756 0.82674587 0 25
1.6575122 17.72436 1.2455276 0 26
1.6723611 17.883146 1.6775364 0 27
1.6974471 18.151398 2.1317248 0 28
1.742301 18.631037 2.63082 0 29
1.8271763 19.538639 3.2263632 0 30
1.8496026 19.778452 3.7427189 0 31
1.9334339 29.908775 -17.774359 0 0
1.9312876 29.875576 -16.825418 0 1
1.9296392 29.850075 -15.90662 0 2
1.9272603 29.813274 -15.005778 0 3
1.926133 29.795837 -14.136644 0 4
1.9245518 29.771376 -13.28413 0 5
1.9229428 29.746485 -12.450057 0 6
1.6157709 24.994768 -9.7830915 0 7
1.5755657 24.372822 -8.8902636 0 8
1.5389254 23.806025 -8.0598841 0 9
1.5084401 23.33444 -7.2984834 0 10
1.4956872 23.137161 -6.648735 0 11
1.916416 29.645523 -7.7755241 0 12
1.9148109 29.620691 -7.0351667 0 13
1.9142015 29.611265 -6.3073673 0 14
1.3248105 20.493828 -3.8680894 0 15
1.3090286 20.249693 -3.335011 0 16
1.295995 20.048073 -2.8233299 0 17
1.2821345 19.83366 -2.3228638 0 18
1.2163975 18.816759 -1.7600287 0 19
1.1790371 18.238823 -1.277727 0 20
1.1557293 17.878267 -0.83405381 0 21
1.1389407 17.618561 -0.41049442 0 22
1.1287813 17.461403 0.00049953535 0 23
1.1249057 17.401451 0.40643215 0 24
1.1248018 17.399841 0.8127321 0 25
1.1279876 17.449125 1.2234077 0 26
1.1361307 17.57509 1.6449034 0 27
1.1516708 17.815485 2.087534 0 28
1.173499 18.153152 2.5575311 0 29
1.2147138 18.790714 3.0958295 0 30
1.2771453 19.756481 3.7300901 0 31
1.0261486 28.59977 -16.971949 0 0
1.0258621 28.591784 -16.079208 0 1
1.0260046 28.595757 -15.216259 0 2
1.0258313 28.590925 -14.369806 0 3
1.0258234 28.590704 -13.545324 0 4
1.0255265 28.582432 -12.735242 0 5
1.0257739 28.589325 -11.948502 0 6
1.0256555 28.586025 -11.172609 0 7
1.0257864 28.589674 -10.413383 0 8
0.87823492 24.47727 -8.2752047 0 9
0.85946178 23.954044 -7.4814868 0 10
1.0253865 28.578527 -8.2005434 0 11
1.0246959 28.559282 -7.4798288 0 12
1.025058 28.569376 -6.7756934 0 13
1.0254667 28.580765 -6.0790935 0 14
0.77926844 21.718977 -4.0934229 0 15
0.7466799 20.810701 -3.4224679 0 16
0.73333734 20.438833 -2.8742127 0 17
0.69598848 19.397882 -2.2685535 0 18
0.6646111 18.523363 -1.7300897 0 19
0.64635134 18.014446 -1.26019 0 20
0.63441145 17.681671 -0.82369375 0 21
0.62723589 17.48168 -0.4067184 0 22
0.62222582 17.342045 0.00049540598 0 23
0.62058765 17.296389 0.40339625 0 24
0.61965817 17.270481 0.80552751 0 25
0.62104541 17.309147 1.2118449 0 26
0.62521666 17.425402 1.6285439 0 27
0.63144636 17.59903 2.0591996 0 28
0.64353466 17.935942 2.5232885 0 29
0.66229284 18.458752 3.036756 0 30
0.69955808 19.497372 3.6758654 0 31
0.20293978 28.288115 -16.77664 0 0
0.20295213 28.289837 -15.899582 0 1
0.2029144 28.284576 -15.041385 0 2
0.2029303 28.286793 -14.208172 0 3
0.20300232 28.296833 -13.397821 0 4
0.20304687 28.303043 -12.602972 0 5
0.20303111 28.300846 -11.820633 0 6
0.20303567 28.301481 -11.054569 0 7
0.2030313 28.300873 -10.301827 0 8
0.20309742 28.310087 -9.5650845 0 9
0.2029988 28.296343 -8.8322468 0 10
0.20304716 28.303082 -8.1164913 0 11
0.20324159 28.330185 -7.4152465 0 12
0.20311564 28.312628 -6.7106566 0 13
0.20326369 28.333265 -6.0227304 0 14
0.19923587 27.77182 -5.2309842 0 15
0.19922295 27.770021 -4.564158 0 16
0.14870533 20.728285 -2.9131176 0 17
0.13808975 19.24856 -2.2497008 0 18
0.13216029 18.422043 -1.7195641 0 19
0.12870832 17.940868 -1.2542681 0 20
0.12649406 17.632219 -0.82088298 0 21
0.12492456 17.413443 -0.40488073 0 22
0.12410194 17.298777 0.00049386488 0 23
0.12365344 17.236259 0.40174574 0 24
0.12361411 17.230778 0.8031795 0 25
0.12393998 17.276201 1.2087917 0 26
0.12472107 17.385078 1.6237721 0 27
0.12589872 17.549232 2.0521054 0 28
0.12816641 17.86533 2.5118029 0 29
0.13158201 18.341436 3.0155931 0 30
0.13860816 19.320822 3.6403317 0 31
-0.60948557 28.32217 -16.800293 0 0
-0.60994875 28.343695 -15.933128 0 1
-0.60987246 28.340151 -15.074039 0 2
-0.60999507 28.345846 -14.240764 0 3
-0.60966825 28.33066 -13.416598 0 4
-0.61000657 28.34638 -12.624866 0 5
-0.61003089 28.347509 -11.84256 0 6
-0.61035818 28.36272 -11.080769 0 7
-0.61046094 28.367495 -10.328204 0 8
-0.61064649 28.376118 -9.589366 0 9
-0.6104573 28.367327 -8.856225 0 10
-0.61066878 28.377153 -8.1394072 0 11
-0.61071652 28.379372 -7.4296498 0 12
-0.61112499 28.398354 -6.7323604 0 13
-0.61114538 28.3993 -6.0380096 0 14
-0.59910548 27.839817 -5.2448711 0 15
-0.59908348 27.838797 -4.5764031 0 16
-0.45007086 20.914331 -2.9398692 0 17
-0.41680753 19.368618 -2.2641985 0 18
-0.39802656 18.495886 -1.726812 0 19
-0.38753861 18.008522 -1.259257 0 20
-0.38045588 17.679396 -0.82324868 0 21
-0.375985 17.471638 -0.40631741 0 22
-0.37278453 17.322916 0.0004946558 0 23
-0.37154198 17.265177 0.40250254 0 24
-0.37132812 17.255238 0.8044852 0 25
-0.37249923 17.309658 1.2113819 0 26
-0.37469834 17.411848 1.6266072 0 27
-0.37870032 17.597816 2.0582097 0 28
-0.38557211 17.917141 2.5196059 0 29
-0.39685482 18.441437 3.0326586 0 30
-0.41884515 19.463306 3.6679325 0 31
-1.4458681 28.774092 -17.085945 0 0
-1.4464475 28.785622 -16.198219 0 1
-1.4463475 28.78363 -15.325693 0 2
-1.4467179 28.791002 -14.479304 0 3
-1.4469591 28.795803 -13.650922 0 4
-1.4484013 28.824505 -12.851035 0 5
-1.4477874 28.812284 -12.049123 0 6
-1.4483163 28.822813 -11.272116 0 7
-1.4484612 28.825695 -10.505837 0 8
-1.4500803 28.857916 -9.762228 0 9
-1.4502145 28.860586 -9.0194998 0 10
-1.4504546 28.865366 -8.2879677 0 11
-1.450227 28.860838 -7.5634775 0 12
-1.4512051 28.880301 -6.8536663 0 13
-1.4512672 28.881538 -6.146863 0 14
-1.4170463 28.200508 -5.318295 0 15
-1.4164476 28.188595 -4.638679 0 16
-1.0966059 21.823456 -3.0708215 0 17
-0.99217963 19.745277 -2.3106072 0 18
-0.94344074 18.77533 -1.7547067 0 19
-0.9153164 18.215628 -1.2750508 0 20
-0.89651257 17.841415 -0.83164883 0 21
-0.88538837 17.620033 -0.41019052 0 22
-0.87712115 17.455509 0.00049895531 0 23
-0.87381017 17.389616 0.40582114 0 24
-0.87347758 17.382998 0.81127638 0 25
-0.87550676 17.42338 1.2205963 0 26
-0.88278127 17.56815 1.6428992 0 27
-0.89326864 17.776857 2.0812917 0 28
-0.91023588 18.114521 2.5499861 0 29
-0.94133604 18.733442 3.0838511 0 30
-1.0043706 19.987886 3.7706714 0 31
-2.3035512 29.136316 -4.8035355 0 16
-2.3052528 29.157839 -4.1104741 0 17
-1.6294335 20.609783 -2.41625 0 18
-1.5299239 19.351143 -1.8118787 0 19
-1.4723014 18.622309 -1.3059374 0 20
-1.4364173 18.16843 -0.84846437 0 21
-1.4160877 17.911293 -0.41774505 0 22
-1.4021945 17.735567 0.00050790177 0 23
-1.3959155 17.656147 0.41280606 0 24
-1.3938739 17.630323 0.82434678 0 25
-1.3985213 17.689106 1.2415122 0 26
-1.4103854 17.839167 1.6713406 0 27
-1.4315518 18.10689 2.1238668 0 28
-1.466725 18.551775 2.6163867 0 29
-1.534482 19.408796 3.2009573 0 30
-1.7036234 21.54817 4.0725617 0 31
-2.2067883 20.43239 -1.9182576 0 19
-2.0935354 19.383795 -1.3629907 0 20
-2.0256953 18.755672 -0.87824178 0 21
-1.9861379 18.389414 -0.43004858 0 22
-1.9624418 18.170015 0.00052174128 0 23
-1.9515665 18.069323 0.4236013 0 24
-1.9510714 18.064737 0.84692818 0 25
-1.9604924 18.151966 1.277421 0 26
-1.9806802 18.338882 1.7227747 0 27
-2.0227098 18.728029 2.202626 0 28
-2.0994723 19.438765 2.7488458 0 29
-2.2638996 20.961178 3.4662688 0 30
-2.817493 20.546499 -1.4498361 0 20
-2.7328305 19.9291 -0.93647486 0 21
-2.6525619 19.343744 -0.45395955 0 22
-2.607933 19.01829 0.00054802245 0 23
-2.5873811 18.868414 0.44389251 0 24
-2.5842454 18.845549 0.88664681 0 25
-2.6059785 19.004036 1.3420948 0 26
-2.6567514 19.374296 1.8264531 0 27
-2.7512088 20.063124 2.3679593 0 28
-3.0121908 21.966328 3.1172106 0 29
-3.4202809 20.544575 -1.456027 0 20
-3.3474886 20.107334 -0.9489736 0 21
-3.3091264 19.876902 -0.4685075 0 22
-3.2908444 19.76709 0.00057208538 0 23
-3.2859328 19.737587 0.46636683 0 24
-3.3002276 19.823452 0.93672556 0 25
-3.3377707 20.04896 1.4220682 0 26
-3.4000652 20.423145 1.9337327 0 27
-3.6057618 21.658701 2.5674338 0 28
-4.0361733 20.580524 -1.4661803 0 20
-3.9471593 20.126638 -0.95483774 0 21
-3.9007039 19.889763 -0.47125512 0 22
-3.8801775 19.785097 0.00057559228 0 23
-3.8792531 19.780384 0.46981516 0 24
-3.8943412 19.857319 0.94321865 0 25
-3.938164 20.080772 1.4317515 0 26
-4.017211 20.483833 1.949592 0 27
-4.7189217 20.872168 -0.9962213 0 21
-4.5101099 19.948574 -0.47551951 0 22
-4.4785271 19.808882 0.00057978462 0 23
-4.479147 19.811625 0.47341534 0 24
-4.5002627 19.90502 0.95122743 0 25
-4.5464602 20.109354 1.4424983 0 26
-5.4399176 21.212481 -1.019496 0 21
-5.318903 20.740593 -0.49783269 0 22
-5.2709494 20.553604 0.00060575985 0 23
-5.267715 20.540991 0.49425313 0 24
-5.3015199 20.67281 0.99477994 0 25
-5.4062886 21.081347 1.5227244 0 26
-6.1118932 21.276426 -1.0305749 0 21
-5.9642396 20.762423 -0.50225824 0 22
-5.9016676 20.5446 0.00061023491 0 23
-5.9022131 20.546499 0.49825618 0 24
-5.937665 20.669912 1.0024275 0 25
-6.0471692 21.051113 1.532445 0 26
-6.3679404 22.167767 2.1541553 0 27
-6.5629549 22.846642 2.7795243 0 28
-6.6851635 23.272068 3.4042082 0 29
-6.8845572 23.966188 4.0996327 0 30
-6.8101306 21.376125 -1.0444405 0 21
-6.6327686 20.819408 -0.50803232 0 22
-6.5610118 20.594173 0.00061704603 0 23
-6.5558991 20.578125 0.50337833 0 24
-6.5990291 20.713503 1.0133088 0 25
-6.7211356 21.096781 1.5491729 0 26
-7.0032401 21.982271 2.1547728 0 27
-7.2693057 22.817417 2.8001962 0 28
-7.4428067 23.362013 3.4471905 0 29
-7.6190629 23.915258 4.1266246 0 30
-7.5187573 21.452225 -1.0582659 0 21
-7.3128834 20.864832 -0.51405019 0 22
-7.2447143 20.670336 0.00062530005 0 23
-7.2410331 20.659832 0.51025021 0 24
-7.2954373 20.815056 1.0280956 0 25
-7.4548593 21.269913 1.576947 0 26
-7.7479639 22.106186 2.1878145 0 27
-8.0650978 23.011021 2.8511863 0 28
-8.3051319 23.695877 3.530169 0 29
-8.5171871 24.300903 4.2336016 0 30
-8.2399273 21.511955 -1.0724363 0 21
-8.023325 20.946474 -0.52151972 0 22
-7.9492865 20.75318 0.00063444616 0 23
-7.963932 20.791416 0.51893109 0 24
-8.0501385 21.016474 1.0490229 0 25
-8.2471066 21.530699 1.6131647 0 26
-8.5700674 22.37385 2.2377241 0 27
-8.926528 23.304462 2.9180851 0 28
-9.2112684 24.047832 3.6204941 0 29
-9.4607801 24.699232 4.3485074 0 30
-8.9789114 21.567642 -1.0876108 0 21
-8.734149 20.979717 -0.52837062 0 22
-8.6834641 20.857969 0.00064500241 0 23
-8.7318964 20.974304 0.52953225 0 24
-8.8698292 21.305624 1.0757183 0 25
-9.1118574 21.886984 1.6587682 0 26
-9.4472218 22.692541 2.2957687 0 27
-9.8277864 23.606668 2.990011 0 28
-10.156445 24.396118 3.7152824 0 29
-10.430785 25.055092 4.4620247 0 30
-9.7326298 21.609182 -1.1033363 0 21
-9.470438 21.027044 -0.53618664 0 22
-9.4457331 20.972193 0.00065664685 0 23
-9.5505877 21.205 0.54205304 0 24
-9.7579422 21.665384 1.1075655 0 25
-10.037911 22.286995 1.7102122 0 26
-10.390767 23.070433 2.3631947 0 27
-10.74686 23.861059 3.0600357 0 28
-11.104328 24.654741 3.8016338 0 29
-11.444073 25.409069 4.581666 0 30
-10.52371 21.682055 -1.1220154 0 21
-10.218761 21.053766 -0.5441221 0 22
-10.23922 21.095917 0.00066944555 0 23
-10.419991 21.468361 0.55620033 0 24
-10.68854 22.021654 1.1409899 0 25
-11.010129 22.684225 1.764214 0 26
-11.364145 23.413607 2.4307535 0 27
-11.720946 24.148726 3.1387725 0 28
-12.069374 24.866594 3.8861086 0 29
-12.491403 25.736101 4.7033386 0 30
-11.002557 21.104994 -0.5533787 0 22
-11.082769 21.258858 0.00068442745 0 23
-11.316479 21.707157 0.57056606 0 24
-11.626015 22.300907 1.1722629 0 25
-11.970841 22.962349 1.8118167 0 26
-12.322235 23.636389 2.4895699 0 27
-12.685264 24.332747 3.2086873 0 28
-13.046772 25.02619 3.9679298 0 29
-11.817719 21.164412 -0.56359714 0 22
-11.954369 21.40914 0.00070002262 0 23
-12.220397 21.885571 0.58423322 0 24
-12.556652 22.487772 1.2005335 0 25
-12.910396 23.121294 1.8528295 0 26
-13.271654 23.768274 2.5425308 0 27
-13.640398 24.428658 3.2716076 0 28
-14.034431 25.134333 4.0472684 0 29
-12.669464 21.234837 -0.57491809 0 22
-12.853294 21.542948 0.00071616389 0 23
-13.151386 22.042568 0.59825319 0 24
-13.486714 22.604599 1.2269281 0 25
-13.849355 23.212408 1.8912022 0 26
-14.224576 23.841305 2.5929434 0 27
-14.606425 24.481308 3.333425 0 28
-15.036859 25.202742 4.1260729 0 29
-13.567348 21.324673 -0.58764994 0 22
-13.769687 21.6427 0.00073231524 0 23
-14.075667 22.123631 0.61116505 0 24
-14.430833 22.681868 1.2530847 0 25
-14.803553 23.267694 1.929525 0 26
-15.196014 23.884552 2.6439877 0 27
-15.589833 24.503542 3.3959732 0 28
-16.103327 25.310633 4.2176585 0 29
-14.512774 21.427637 -0.601717 0 22
-14.709176 21.717619 0.00074882526 0 23
-15.044979 22.213421 0.62531549 0 24
-15.401723 22.740141 1.2801958 0 25
-15.779955 23.298588 1.9688305 0 26
-16.176771 23.884476 2.6942611 0 27
-16.600475 24.510059 3.4614768 0 28
-15.491379 21.516254 -0.61643595 0 22
-15.71017 21.820137 0.00076758955 0 23
-16.036245 22.273029 0.63968527 0 24
-16.40996 22.792088 1.3090935 0 25
-16.796227 23.328581 2.0112698 0 26
-17.19075 23.876541 2.7478859 0 27
-17.656078 24.522846 3.5333869 0 28
-16.526503 21.617994 -0.63267833 0 22
-16.744905 21.903683 0.00078710919 0 23
-17.070871 22.330072 0.65512395 0 24
-17.442867 22.816671 1.3387058 0 25
-17.833986 23.328289 2.0545239 0 26
-18.248602 23.870638 2.8063226 0 27
-18.743006 24.517359 3.6086128 0 28
-17.600958 21.703609 -0.64969933 0 22
-17.825686 21.980721 0.00080792798 0 23
-18.146473 22.37628 0.67148161 0 24
-18.519089 22.835751 1.3704431 0 25
-18.910919 23.318913 2.1006298 0 26
-19.349987 23.860323 2.8692129 0 27
-19.938545 24.586069 3.701422 0 28
-18.724796 21.781254 -0.66783488 0 22
-18.950531 22.043835 0.0008298959 0 23
-19.273531 22.419558 0.68909484 0 24
-19.651354 22.859053 1.405108 0 25
-20.059511 23.333836 2.1529455 0 26
-20.510847 23.858843 2.9386072 0 27
-19.91308 21.862213 -0.68755591 0 22
-20.142546 22.11414 0.00085395348 0 23
-20.468515 22.472017 0.7084704 0 24
-20.857178 22.898722 1.4437447 0 25
-21.260992 23.342062 2.2090921 0 26
-21.765953 23.89645 3.0189314 0 27
-21.184595 21.95838 -0.70940822 0 22
-21.394857 22.176323 0.00087970233 0 23
-21.730661 22.524391 0.72948229 0 24
-22.115692 22.923487 1.4847108 0 25
-22.550938 23.37463 2.2724869 0 26
-23.132299 23.977226 3.1117225 0 27
-22.507236 22.028156 -0.73222864 0 22
-22.717875 22.234312 0.00090749143 0 23
-23.063967 22.573036 0.75218439 0 24
-23.475302 22.975616 1.531091 0 25
-23.930176 23.420807 2.3427782 0 26
-24.658955 24.134073 3.2225909 0 27
-23.91218 22.096333 -0.75699407 0 22
-24.129385 22.297043 0.00093792874 0 23
-24.488358 22.628756 0.77713907 0 24
-24.911272 23.019554 1.5810095 0 25
-25.407434 23.478039 2.4204428 0 26
-25.414534 22.167393 -0.78409243 0 22
-25.643417 22.367033 0.00097142952 0 23
-26.015587 22.69165 0.80460829 0 24
-26.449224 23.069883 1.6359247 0 25
-26.994354 23.545362 2.5062177 0 26
-27.045841 22.256979 -0.81438005 0 22
-27.24061 22.417263 0.0010071491 0 23
-27.640194 22.746094 0.83432168 0 24
-28.089981 23.11624 1.6956779 0 25
-28.697493 23.616182 2.6003473 0 26
-28.762022 22.316816 -0.84642297 0 22
-28.954212 22.46594 0.001046237 0 23
-29.366346 22.785721 0.86633074 0 24
-29.817715 23.135942 1.7591695 0 25
-30.634655 22.392046 -0.8822574 0 22
-30.782867 22.500381 0.0010885332 0 23
-31.182085 22.792185 0.90022957 0 24
-31.649523 23.133852 1.8273207 0 25
-32.715687 22.502251 -0.92321175 0 22
-32.732841 22.514051 0.001134173 0 23
-33.143848 22.796745 0.93759227 0 24
-33.588993 23.102921 1.900236 0 25
-35.180927 22.739391 -0.97396272 0 22
-34.83918 22.518501 0.0011842769 0 23
-35.218681 22.763796 0.97740364 0 24
-37.098255 22.496717 0.0012386128 0 23
-37.448105 22.70887 1.0207689 0 24
-39.57489 22.471771 0.0012992347 0 23
-39.839836 22.622215 1.0678271 0 24
-42.262562 22.419706 0.0013657853 0 23
-45.240292 22.360619 0.0014406844 0 23
