# .PCD v0.7 - Point Cloud Data file format
VERSION 0.7
FIELDS x y z intensity ring
SIZE 4 4 4 4 2
TYPE F F F F U
COUNT 1 1 1 1 1
WIDTH 619
HEIGHT 1
VIEWPOINT 0 0 0 1 0 0 0
POINTS 619
DATA ascii
10.903866 21.668257 -14.385632 0 0
10.163672 21.728159 -14.225897 0 0
10.08224 21.554071 -13.373354 0 1
10.165223 21.731474 -12.758015 0 2
9.5215063 21.976891 -14.203997 0 0
9.4149103 21.730852 -13.309918 0 1
9.3111954 21.491467 -12.455109 0 2
9.2768841 21.41227 -11.720889 0 3
8.9237671 22.332621 -14.26252 0 0
8.807991 22.042879 -13.340717 0 1
8.6868429 21.739693 -12.449364 0 2
8.5863552 21.488213 -11.62279 0 3
8.5096016 21.296131 -10.858071 0 4
8.546629 21.388796 -10.256088 0 5
8.3338289 22.727713 -14.356191 0 0
8.2225504 22.42424 -13.423182 0 1
8.1136017 22.127119 -12.532724 0 2
7.9922609 21.796202 -11.660518 0 3
7.8828554 21.497835 -10.841106 0 4
7.7914138 21.248459 -10.07743 0 5
7.7526836 21.142836 -9.405612 0 6
7.8691463 21.460449 -8.9279957 0 7
7.7400637 23.141724 -14.471438 0 0
7.6398201 22.84201 -13.536444 0 1
7.5388789 22.540209 -12.638953 0 2
7.4287724 22.211006 -11.763533 0 3
7.3171611 21.877304 -10.922076 0 4
7.2006855 21.529057 -10.108341 0 5
7.10326 21.237768 -9.3533077 0 6
7.0433969 21.058786 -8.673233 0 7
7.0632572 21.118166 -8.1056099 0 8
7.2289958 21.613701 -7.7000184 0 9
7.1513987 23.613012 -14.631789 0 0
7.0657601 23.330244 -13.699971 0 1
6.969245 23.011564 -12.785843 0 2
6.8622084 22.658142 -11.891151 0 3
6.7537274 22.299952 -11.031775 0 4
6.6466813 21.946499 -10.210574 0 5
6.5270543 21.551506 -9.4051132 0 6
6.4229693 21.20783 -8.655138 0 7
6.3612518 21.004045 -7.9884501 0 8
6.3531742 20.977375 -7.4053202 0 9
6.4087024 21.160723 -6.9010701 0 10
6.5742722 21.707413 -6.504108 0 11
6.5543823 24.114914 -14.820136 0 0
6.4747396 23.821892 -13.873851 0 1
6.3852777 23.492744 -12.946053 0 2
6.2909451 23.145676 -12.047304 0 3
6.191339 22.779203 -11.17636 0 4
6.082798 22.37986 -10.326727 0 5
5.9664655 21.951847 -9.5011883 0 6
5.8451071 21.505346 -8.7045155 0 7
5.7452817 21.138067 -7.9734316 0 8
5.6872339 20.924498 -7.3260207 0 9
5.6704483 20.86274 -6.7480412 0 10
5.6915302 20.940304 -6.2227602 0 11
5.7522988 21.163885 -5.7403331 0 12
5.8950577 21.689125 -5.3271184 0 13
5.9568591 24.694904 -15.065314 0 0
5.8720784 24.343437 -14.073659 0 1
5.7914371 24.009129 -13.133618 0 2
5.7060766 23.655254 -12.222273 0 3
5.6165185 23.283979 -11.340271 0 4
5.5127091 22.853626 -10.468026 0 5
5.3956499 22.368341 -9.6104784 0 6
5.2716804 21.85441 -8.7809515 0 7
5.1622238 21.400644 -8.0132961 0 8
5.0704379 21.020134 -7.3055506 0 9
5.0166368 20.797096 -6.6774926 0 10
4.9978809 20.719339 -6.111958 0 11
5.0069294 20.756853 -5.5886583 0 12
5.0328431 20.864281 -5.0869579 0 13
5.0807061 21.062702 -4.6055422 0 14
5.209311 21.595852 -4.1842656 0 15
5.2597976 24.920996 -14.314403 0 1
5.1856775 24.569813 -13.353421 0 2
5.1083117 24.203253 -12.424555 0 3
5.0276766 23.821203 -11.526903 0 4
4.929934 23.358097 -10.629917 0 5
4.8195548 22.835119 -9.7475882 0 6
4.696435 22.251776 -8.8828001 0 7
4.5769534 21.685671 -8.0675173 0 8
4.4800258 21.226425 -7.329545 0 9
4.4080157 20.885241 -6.6624341 0 10
4.3676276 20.693882 -6.0649762 0 11
4.3460002 20.591412 -5.5082655 0 12
4.3426065 20.575331 -4.9840708 0 13
4.3557 20.637367 -4.4833608 0 14
4.3799553 20.752291 -3.9948244 0 15
4.4246788 20.964191 -3.5213983 0 16
4.5192876 21.412449 -3.0754845 0 17
4.3072281 20.407709 -2.4376609 0 18
4.3746047 20.726938 -1.9772806 0 19
4.5411992 21.516266 -1.5373275 0 20
4.5609198 25.161921 -13.598489 0 2
4.4879851 24.75955 -12.638805 0 3
4.4168386 24.367046 -11.724869 0 4
4.3300734 23.888374 -10.810236 0 5
4.2349625 23.363663 -9.917244 0 6
4.1253657 22.759031 -9.0343142 0 7
4.0127172 22.137568 -8.1894197 0 8
3.9076245 21.557787 -7.4021945 0 9
3.8221772 21.086388 -6.6888552 0 10
3.7672646 20.783442 -6.057045 0 11
3.7340322 20.600103 -5.4796691 0 12
3.7171459 20.506945 -4.9396315 0 13
3.7141519 20.490427 -4.4264603 0 14
3.7181461 20.512463 -3.9265001 0 15
3.7386599 20.625633 -3.4450896 0 16
3.6063352 19.895618 -2.8415861 0 17
3.6252728 20.000093 -2.375567 0 18
3.6481647 20.126387 -1.9092162 0 19
3.6860011 20.335123 -1.4447825 0 20
3.7446325 20.658585 -0.97742534 0 21
3.881819 21.415422 -0.50603187 0 22
3.88834 21.451397 0.0006223821 0 23
3.8158557 21.051512 0.49865511 0 24
3.8353047 21.15881 1.002323 0 25
3.9747519 21.92812 1.5592414 0 26
3.83919 21.180244 3.5389881 0 30
3.7585163 20.73518 3.9703784 0 31
3.8549781 25.399282 -12.903579 0 3
3.7851093 24.938938 -11.942865 0 4
3.7118015 24.455936 -11.014337 0 5
3.6358564 23.955559 -10.12003 0 6
3.5463529 23.365847 -9.2309923 0 7
3.4549322 22.763502 -8.3808441 0 8
3.3580894 22.125435 -7.5609021 0 9
3.2707057 21.54969 -6.8032451 0 10
3.2013538 21.092751 -6.1178951 0 11
3.1569431 20.800142 -5.5065131 0 12
3.1296225 20.620134 -4.9432268 0 13
3.1161463 20.531343 -4.4141631 0 14
3.1124191 20.506786 -3.9067075 0 15
3.0033183 19.787956 -3.289422 0 16
3.0025716 19.783035 -2.8120418 0 17
3.0064826 19.808804 -2.3416336 0 18
3.0145319 19.861837 -1.8751421 0 19
3.0301979 19.965055 -1.4117301 0 20
3.0514464 20.105057 -0.94670308 0 21
2.9547093 19.467686 -0.45781603 0 22
2.9041443 19.134527 0.00055251585 0 23
2.8784704 18.96537 0.44709909 0 24
2.8783181 18.964367 0.89408803 0 25
2.9033427 19.129246 1.3537401 0 26
2.970603 19.572403 1.8489571 0 27
3.0861747 20.333872 2.4048932 0 28
3.1207144 20.561443 2.9238989 0 29
3.088336 20.348112 3.3837457 0 30
3.0624025 20.177242 3.8451333 0 31
3.1370869 25.599861 -12.21123 0 4
3.0636256 25.000389 -11.215329 0 5
3.0013466 24.492168 -10.306091 0 6
2.9413137 24.002275 -9.4451857 0 7
2.8732567 23.446903 -8.5985537 0 8
2.8028002 22.87195 -7.7853155 0 9
2.7362545 22.328913 -7.021564 0 10
2.6741369 21.822006 -6.3045588 0 11
2.6140335 21.331539 -5.6250172 0 12
2.5730598 20.997179 -5.0138488 0 13
2.5486858 20.798279 -4.4539938 0 14
2.5075684 20.462744 -3.8830087 0 15
2.4263413 19.799898 -3.2784824 0 16
2.4203582 19.751074 -2.7964742 0 17
2.4172487 19.7257 -2.3226533 0 18
2.4174185 19.727083 -1.8551067 0 19
2.3874443 19.482483 -1.3721977 0 20
2.3082552 18.836269 -0.88347572 0 21
2.262687 18.464415 -0.43251729 0 22
2.2314186 18.209251 0.00052373344 0 23
2.2179558 18.09939 0.42500851 0 24
2.2167428 18.089493 0.84949255 0 25
2.2288957 18.188663 1.2821224 0 26
2.2564945 18.413881 1.7326834 0 27
2.3066323 18.823027 2.217463 0 28
2.4004135 19.588318 2.7745793 0 29
2.4463305 19.963018 3.3066714 0 30
2.4359336 19.878174 3.7732649 0 31
2.4034812 25.701269 -11.494074 0 5
2.3372891 24.993452 -10.484487 0 6
2.2865682 24.451077 -9.5920229 0 7
2.2393804 23.94648 -8.7545881 0 8
2.1902239 23.420834 -7.9474812 0 9
2.1477878 22.967049 -7.1998863 0 10
2.1157279 22.624222 -6.5161009 0 11
2.1204114 22.674305 -5.9605966 0 12
2.0138583 21.534895 -4.5974727 0 14
1.8797923 20.10128 -3.8026149 0 15
1.865433 19.947731 -3.2927408 0 16
1.8559717 19.846558 -2.8012986 0 17
1.8494936 19.777287 -2.3215218 0 18
1.8145181 19.40328 -1.8190109 0 19
1.7441365 18.650663 -1.3095461 0 20
1.7003412 18.182346 -0.85016608 0 21
1.6750934 17.912363 -0.41828755 0 22
1.660382 17.755049 0.00050908956 0 23
1.651528 17.66037 0.4134163 0 24
1.6509089 17.653749 0.82646465 0 25
1.6573905 17.723059 1.2454362 0 26
1.6720188 17.879484 1.6771929 0 27
1.6966187 18.14254 2.1306846 0 28
1.7431092 18.639679 2.6320405 0 29
1.8272673 19.539612 3.2265239 0 30
1.8493323 19.77556 3.742172 0 31
1.9322963 29.891176 -17.763901 0 0
1.9283174 29.829628 -16.799543 0 1
1.9269816 29.808962 -15.884712 0 2
1.9247205 29.773985 -14.986004 0 3
1.9230615 29.748322 -14.1141 0 4
1.9217927 29.728697 -13.265086 0 5
1.9209239 29.715256 -12.436987 0 6
1.6145632 24.976086 -9.7757788 0 7
1.574214 24.351913 -8.882637 0 8
1.5377874 23.78842 -8.0539246 0 9
1.5083001 23.332273 -7.2978053 0 10
1.4953469 23.131897 -6.6472225 0 11
1.9139777 29.607803 -7.7656307 0 12
1.9129814 29.592392 -7.0284448 0 13
1.9128423 29.590239 -6.3028884 0 14
1.3254175 20.503216 -3.8698616 0 15
1.309633 20.259043 -3.336551 0 16
1.2965128 20.056084 -2.8244581 0 17
1.2788647 19.783081 -2.3169401 0 18
1.2156811 18.805677 -1.7589922 0 19
1.1763082 18.196608 -1.2747697 0 20
1.1545712 17.860352 -0.83321804 0 21
1.1393261 17.624523 -0.41063333 0 22
1.1294038 17.471031 0.00049981085 0 23
1.1246016 17.396746 0.40632227 0 24
1.1239578 17.386786 0.81212223 0 25
1.1279622 17.44873 1.2233802 0 26
1.1354719 17.564901 1.6439497 0 27
1.151008 17.805233 2.0863326 0 28
1.1745657 18.169651 2.5598557 0 29
1.2145958 18.788887 3.0955286 0 30
1.2765222 19.746841 3.7282703 0 31
1.025252 28.57478 -16.957117 0 0
1.025337 28.577148 -16.07098 0 1
1.0254174 28.57939 -15.207551 0 2
1.0255896 28.584188 -14.36642 0 3
1.0252197 28.573879 -13.537353 0 4
1.0249255 28.56568 -12.727777 0 5
1.0254451 28.580164 -11.944672 0 6
1.0255644 28.583488 -11.171618 0 7
1.0253855 28.578501 -10.409314 0 8
0.87838632 24.481489 -8.2766314 0 9
0.86018723 23.974264 -7.4878016 0 10
1.025038 28.568817 -8.1977568 0 11
1.0253915 28.578667 -7.4849057 0 12
1.0254086 28.579144 -6.7780104 0 13
1.0251504 28.571949 -6.0772185 0 14
0.78290546 21.820343 -4.1125278 0 15
0.74783367 20.842859 -3.4277563 0 16
0.73404998 20.458694 -2.8770058 0 17
0.69499469 19.370184 -2.2653141 0 18
0.66419768 18.511841 -1.7290134 0 19
0.64552659 17.991459 -1.258582 0 20
0.6345855 17.686522 -0.82391965 0 21
0.62660104 17.463987 -0.40630677 0 22
0.62162215 17.32522 0.00049492531 0 23
0.62013358 17.283731 0.40310106 0 24
0.62012124 17.283388 0.80612952 0 25
0.62133855 17.317314 1.2124168 0 26
0.62518543 17.424532 1.6284626 0 27
0.63195282 17.613146 2.0608513 0 28
0.64362609 17.938492 2.5236471 0 29
0.66246903 18.463663 3.037564 0 30
0.70022392 19.515928 3.6793642 0 31
0.20276643 28.263952 -16.76231 0 0
0.20283322 28.27326 -15.890265 0 1
0.20286387 28.277534 -15.037639 0 2
0.2028909 28.281303 -14.205415 0 3
0.20290996 28.283958 -13.391726 0 4
0.20298631 28.294601 -12.599214 0 5
0.20277403 28.265013 -11.805666 0 6
0.20307358 28.306765 -11.056633 0 7
0.20303062 28.300777 -10.301793 0 8
0.20306474 28.305534 -9.5635452 0 9
0.20310284 28.310844 -8.8367729 0 10
0.20307021 28.306295 -8.1174126 0 11
0.20303939 28.302 -7.4078693 0 12
0.20309846 28.310234 -6.7100892 0 13
0.203025 28.299994 -6.0156579 0 14
0.19924334 27.772861 -5.2311807 0 15
0.19920675 27.767763 -4.563787 0 16
0.14841262 20.687483 -2.9073834 0 17
0.13791877 19.224728 -2.2469153 0 18
0.13200808 18.400826 -1.7175835 0 19
0.1286421 17.931637 -1.2536227 0 20
0.12638496 17.61701 -0.82017493 0 21
0.12483302 17.400682 -0.40458405 0 22
0.1240564 17.292429 0.00049368368 0 23
0.12370321 17.243198 0.40190744 0 24
0.12369944 17.242672 0.80373394 0 25
0.12396201 17.279272 1.2090065 0 26
0.12459826 17.36796 1.6221733 0 27
0.12599155 17.562172 2.0536184 0 28
0.12820365 17.87052 2.5125327 0 29
0.13180891 18.373064 3.020793 0 30
0.13862821 19.323618 3.6408584 0 31
-0.60968989 28.331663 -16.805925 0 0
-0.61005002 28.3484 -15.935775 0 1
-0.61009127 28.350317 -15.079447 0 2
-0.61002272 28.34713 -14.241409 0 3
-0.60998118 28.3452 -13.423484 0 4
-0.61027396 28.358805 -12.630401 0 5
-0.61035788 28.362705 -11.848908 0 6
-0.610237 28.35709 -11.078568 0 7
-0.61077863 28.382257 -10.333579 0 8
-0.61051005 28.369778 -9.587224 0 9
-0.61042231 28.3657 -8.8557167 0 10
-0.61074531 28.380711 -8.1404276 0 11
-0.61093384 28.389471 -7.4322934 0 12
-0.61079067 28.382816 -6.7286768 0 13
-0.6107167 28.379381 -6.0337744 0 14
-0.59890229 27.830376 -5.2430921 0 15
-0.59926957 27.847443 -4.5778246 0 16
-0.44946387 20.886126 -2.9359043 0 17
-0.41641122 19.350203 -2.2620459 0 18
-0.39831594 18.509333 -1.7280675 0 19
-0.38712361 17.989239 -1.2579086 0 20
-0.38037381 17.675581 -0.82307106 0 21
-0.37584212 17.464998 -0.40616301 0 22
-0.37302792 17.334225 0.00049497874 0 23
-0.37154207 17.265181 0.40250263 0 24
-0.3714973 17.2631 0.80485171 0 25
-0.37256384 17.31266 1.211592 0 26
-0.37505633 17.428484 1.6281613 0 27
-0.37862301 17.594225 2.0577898 0 28
-0.38598594 17.936373 2.5223103 0 29
-0.39730889 18.462538 3.0361283 0 30
-0.4194746 19.492556 3.6734447 0 31
-1.4457997 28.77273 -17.085136 0 0
-1.4463089 28.782862 -16.196667 0 1
-1.4474692 28.805952 -15.337578 0 2
-1.4466028 28.788712 -14.478153 0 3
-1.4480227 28.816969 -13.660956 0 4
-1.448235 28.821194 -12.849559 0 5
-1.4485903 28.828264 -12.055806 0 6
-1.4488837 28.834101 -11.27653 0 7
-1.4499995 28.856308 -10.516994 0 8
-1.4498547 28.853428 -9.7607098 0 9
-1.450343 28.863144 -9.020299 0 10
-1.4511377 28.878958 -8.2918711 0 11
-1.4514408 28.884991 -7.5698075 0 12
-1.4507672 28.871586 -6.8515983 0 13
-1.4519591 28.895306 -6.1497931 0 14
-1.4170148 28.199884 -5.3181772 0 15
-1.4158964 28.177626 -4.6368737 0 16
-1.0940783 21.773153 -3.0637434 0 17
-0.99180382 19.737799 -2.3097322 0 18
-0.94353181 18.777142 -1.754876 0 19
-0.91418689 18.193151 -1.2734774 0 20
-0.89659935 17.843142 -0.83172935 0 21
-0.88507336 17.613764 -0.41004458 0 22
-0.87748361 17.462721 0.00049916154 0 23
-0.87451899 17.403723 0.40615034 0 24
-0.873941 17.39222 0.81170678 0 25
-0.87616408 17.43646 1.2215127 0 26
-0.88357419 17.583929 1.6443748 0 27
-0.89416742 17.794744 2.0833857 0 28
-0.91097814 18.129293 2.5520656 0 29
-0.94297707 18.7661 3.0892272 0 30
-1.0072999 20.046183 3.7816687 0 31
-2.3059824 29.167067 -4.8086052 0 16
-2.3075049 29.186325 -4.1144896 0 17
-1.631551 20.636566 -2.41939 0 18
-1.5289925 19.339361 -1.8107755 0 19
-1.4717267 18.615038 -1.3054276 0 20
-1.4377781 18.185644 -0.8492682 0 21
-1.4155098 17.903984 -0.41757461 0 22
-1.4019129 17.732004 0.00050779979 0 23
-1.3949156 17.643497 0.41251037 0 24
-1.3946972 17.640736 0.82483363 0 25
-1.3992435 17.69824 1.2421533 0 26
-1.4114832 17.853052 1.6726414 0 27
-1.4333352 18.129448 2.1265128 0 28
-1.4691502 18.582449 2.6207128 0 29
-1.5362762 19.43149 3.2047002 0 30
-1.7184829 21.736118 4.1080832 0 31
-2.2088633 20.451603 -1.9200612 0 19
-2.0969536 19.415443 -1.3652161 0 20
-2.0263991 18.762188 -0.87854689 0 21
-1.9880167 18.406811 -0.43045542 0 22
-1.9636104 18.180836 0.000522052 0 23
-1.9518151 18.071625 0.42365527 0 24
-1.9526635 18.079479 0.8476193 0 25
-1.9622384 18.168133 1.2785587 0 26
-1.9835789 18.365721 1.725296 0 27
-2.0260346 18.758814 2.2062466 0 28
-2.1040909 19.481527 2.7548928 0 29
-2.2758842 21.07214 3.4846182 0 30
-2.8148537 20.527252 -1.448478 0 20
-2.7354958 19.948538 -0.93738818 0 21
-2.6562102 19.37035 -0.45458391 0 22
-2.6101587 19.034519 0.00054849015 0 23
-2.5899456 18.887115 0.44433242 0 24
-2.5907738 18.893156 0.88888669 0 25
-2.6113255 19.043028 1.3448485 0 26
-2.662219 19.414169 1.830212 0 27
-2.7604823 20.130753 2.375941 0 28
-3.0509624 22.249071 3.1573341 0 29
-3.4166715 20.522892 -1.4544904 0 20
-3.3467972 20.10318 -0.94877756 0 21
-3.3080156 19.870232 -0.46835023 0 22
-3.2917511 19.772535 0.00057224295 0 23
-3.2869704 19.743818 0.46651408 0 24
-3.3037629 19.844687 0.937729 0 25
-3.3359346 20.037931 1.421286 0 26
-3.4036777 20.444843 1.9357872 0 27
-4.0318007 20.558228 -1.464592 0 20
-3.9456613 20.119001 -0.9544754 0 21
-3.8973081 19.872448 -0.47084489 0 22
-3.8811238 19.789923 0.00057573267 0 23
-3.8772035 19.769934 0.46956691 0 24
-3.8934872 19.852964 0.94301182 0 25
-3.9379354 20.079607 1.4316684 0 26
-4.020443 20.500315 1.9511606 0 27
-4.7203221 20.878361 -0.99651694 0 21
-4.5065322 19.932751 -0.4751423 0 22
-4.4826012 19.826902 0.0005803121 0 23
-4.4811177 19.820339 0.4736236 0 24
-4.5017567 19.911629 0.95154327 0 25
-4.5536027 20.140947 1.4447646 0 26
-5.4369702 21.200985 -1.0189435 0 21
-5.3167295 20.732119 -0.49762928 0 22
-5.2735896 20.563898 0.00060606329 0 23
-5.2673063 20.539398 0.49421477 0 24
-5.3035049 20.68055 0.99515241 0 25
-5.4090843 21.092247 1.5235119 0 26
-6.1172962 21.295235 -1.0314859 0 21
-5.9612875 20.752146 -0.50200969 0 22
-5.9011116 20.542665 0.00061017741 0 23
-5.894639 20.520132 0.49761677 0 24
-5.9344077 20.658573 1.0018777 0 25
-6.0427904 21.035872 1.5313354 0 26
-6.3684592 22.169573 2.1543307 0 27
-6.5631738 22.847404 2.7796171 0 28
-6.6814537 23.259153 3.4023192 0 29
-6.878962 23.946709 4.0963006 0 30
-6.803215 21.354418 -1.0433799 0 21
-6.627923 20.804199 -0.50766116 0 22
-6.5587754 20.587154 0.00061683572 0 23
-6.5512295 20.563467 0.50301981 0 24
-6.5976276 20.709106 1.0130936 0 25
-6.7252316 21.109638 1.5501169 0 26
-7.0059481 21.99077 2.155606 0 27
-7.2718697 22.825464 2.8011839 0 28
-7.4462366 23.37278 3.4487791 0 29
-7.6192546 23.915861 4.1267285 0 30
-7.5117068 21.432108 -1.0572735 0 21
-7.3158989 20.873436 -0.5142622 0 22
-7.243928 20.668091 0.00062523218 0 23
-7.2377949 20.650593 0.51002204 0 24
-7.303575 20.838274 1.0292424 0 25
-7.4577484 21.278154 1.5775582 0 26
-7.7549868 22.126225 2.1897974 0 27
-8.0740709 23.036623 2.8543584 0 28
-8.3072224 23.701839 3.5310574 0 29
-8.5274057 24.330061 4.2386813 0 30
-8.2429352 21.519808 -1.0728279 0 21
-8.0223427 20.943909 -0.52145588 0 22
-7.9519815 20.760216 0.00063466129 0 23
-7.9646339 20.793247 0.51897681 0 24
-8.0598555 21.041842 1.0502892 0 25
-8.2528448 21.545679 1.6142871 0 26
-8.5751991 22.387249 2.2390642 0 27
-8.925849 23.302689 2.9178631 0 28
-9.2212343 24.073851 3.6244113 0 29
-9.4719448 24.72838 4.3536391 0 30
-8.9719553 21.550934 -1.0867683 0 21
-8.7375813 20.987961 -0.52857822 0 22
-8.6799774 20.849592 0.00064474338 0 23
-8.7334604 20.978062 0.52962708 0 24
-8.8811865 21.332907 1.0770957 0 25
-9.1212053 21.909437 1.6604699 0 26
-9.451086 22.701824 2.2967079 0 27
-9.8291254 23.609886 2.9904184 0 28
-10.159066 24.402414 3.7162411 0 29
-10.432877 25.060116 4.4629192 0 30
-9.7232056 21.588259 -1.102268 0 21
-9.4638863 21.012497 -0.53581566 0 22
-9.4494171 20.98037 0.00065690291 0 23
-9.5546284 21.21397 0.5422824 0 24
-9.7646694 21.680319 1.1083291 0 25
-10.046657 22.306412 1.7117022 0 26
-10.396656 23.083508 2.3645339 0 27
-10.760394 23.891109 3.0638897 0 28
-11.104234 24.654531 3.8016014 0 29
-11.44168 25.403757 4.580708 0 30
-10.518126 21.670549 -1.12142 0 21
-10.217945 21.052086 -0.54407871 0 22
-10.247514 21.113005 0.00066998781 0 23
-10.428207 21.485291 0.55663896 0 24
-10.687827 22.020184 1.1409137 0 25
-11.008922 22.681738 1.7640206 0 26
-11.369514 23.424667 2.4319015 0 27
-11.721862 24.150614 3.1390178 0 28
-12.076378 24.881023 3.8883638 0 29
-12.503198 25.760403 4.7077799 0 30
-10.998163 21.096567 -0.55315775 0 22
-11.083596 21.260445 0.00068447849 0 23
-11.317695 21.70949 0.57062733 0 24
-11.629266 22.307142 1.1725906 0 25
-11.970952 22.962561 1.8118335 0 26
-12.328735 23.648857 2.4908831 0 27
-12.687738 24.337494 3.2093132 0 28
-13.051694 25.035629 3.9694266 0 29
-11.817859 21.164663 -0.56360382 0 22
-11.948031 21.397791 0.00069965154 0 23
-12.229101 21.901159 0.58464932 0 24
-12.560448 22.49457 1.2008964 0 25
-12.908551 23.11799 1.8525648 0 26
-13.279181 23.781752 2.5439725 0 27
-13.637918 24.424217 3.271013 0 28
-14.036614 25.138243 4.0478983 0 29
-12.673132 21.240984 -0.57508451 0 22
-12.848385 21.534719 0.00071589038 0 23
-13.143807 22.029867 0.59790844 0 24
-13.484573 22.601011 1.2267333 0 25
-13.852181 23.217146 1.8915882 0 26
-14.221652 23.836403 2.5924103 0 27
-14.599779 24.470169 3.3319082 0 28
-15.044506 25.215559 4.128171 0 29
-13.568793 21.326944 -0.58771259 0 22
-13.763308 21.632675 0.000731976 0 23
-14.078868 22.12866 0.61130399 0 24
-14.438539 22.693979 1.2537538 0 25
-14.808643 23.275696 1.9301887 0 26
-15.186558 23.869688 2.6423423 0 27
-15.591147 24.505608 3.3962595 0 28
-16.102535 25.309387 4.2174511 0 29
-14.514142 21.429657 -0.60177368 0 22
-14.718136 21.730846 0.00074928137 0 23
-15.048947 22.219278 0.62548041 0 24
-15.402483 22.741262 1.280259 0 25
-15.782227 23.301943 1.9691139 0 26
-16.173033 23.878954 2.6936383 0 27
-16.604708 24.51631 3.4623592 0 28
-15.491885 21.516958 -0.61645609 0 22
-15.713944 21.82538 0.00076777395 0 23
-16.046574 22.287374 0.64009726 0 24
-16.407677 22.788916 1.3089113 0 25
-16.785957 23.314318 2.01004 0 26
-17.19474 23.882084 2.748524 0 27
-17.641357 24.502399 3.5304408 0 28
-16.523893 21.614582 -0.63257849 0 22
-16.739105 21.896097 0.00078683661 0 23
-17.068933 22.327538 0.65504956 0 24
-17.44598 22.820744 1.3389447 0 25
-17.827415 23.319693 2.053767 0 26
-18.252243 23.875401 2.8068826 0 27
-18.743172 24.517576 3.6086447 0 28
-17.594959 21.696211 -0.6494779 0 22
-17.822006 21.976181 0.00080776121 0 23
-18.158764 22.391436 0.67193639 0 24
-18.519876 22.83672 1.3705013 0 25
-18.914927 23.323853 2.1010747 0 26
-19.35643 23.868269 2.8701682 0 27
-19.942549 24.591007 3.7021654 0 28
-18.731794 21.789394 -0.66808444 0 22
-18.950537 22.043842 0.00082989619 0 23
-19.27574 22.422127 0.68917382 0 24
-19.65477 22.863028 1.4053524 0 25
-20.060888 23.335436 2.1530933 0 26
-20.522371 23.872248 2.9402583 0 27
-19.926048 21.876451 -0.68800366 0 22
-20.136768 22.107796 0.00085370854 0 23
-20.468477 22.471975 0.70846909 0 24
-20.840559 22.880476 1.4425943 0 25
-21.266251 23.347836 2.2096386 0 26
-21.768578 23.89933 3.0192955 0 27
-21.17313 21.946497 -0.70902431 0 22
-21.398062 22.179644 0.00087983412 0 23
-21.73262 22.526423 0.7295481 0 24
-22.116663 22.924492 1.484776 0 25
-22.546019 23.36953 2.2719913 0 26
-23.125378 23.970051 3.1107912 0 27
-22.505955 22.026901 -0.73218691 0 22
-22.717468 22.233912 0.00090747513 0 23
-23.067879 22.576864 0.75231194 0 24
-23.456799 22.957506 1.5298842 0 25
-23.934755 23.425289 2.3432264 0 26
-24.659792 24.134893 3.2227004 0 27
-23.923691 22.106968 -0.75735843 0 22
-24.138065 22.305063 0.00093826617 0 23
-24.496763 22.636522 0.7774058 0 24
-24.918047 23.025814 1.5814394 0 25
-25.406713 23.477371 2.4203742 0 26
-25.434385 22.184708 -0.78470492 0 22
-25.642477 22.366211 0.00097139383 0 23
-26.020926 22.696306 0.80477339 0 24
-26.454054 23.074097 1.6362236 0 25
-26.991892 23.543217 2.5059891 0 26
-27.031502 22.245178 -0.81394827 0 22
-27.23543 22.412998 0.0010069576 0 23
-27.625723 22.734184 0.83388484 0 24
-28.087259 23.114 1.6955137 0 25
-28.70332 23.620977 2.6008754 0 26
-28.772768 22.325155 -0.84673923 0 22
-28.959639 22.47015 0.0010464331 0 23
-29.335684 22.761929 0.86542618 0 24
-29.814634 23.133553 1.7589877 0 25
-30.632542 22.390503 -0.88219661 0 22
-30.779568 22.497969 0.0010884166 0 23
-31.180914 22.791328 0.90019578 0 24
-31.641476 23.127972 1.8268561 0 25
-32.72514 22.508753 -0.92347854 0 22
-32.734104 22.514917 0.0011342167 0 23
-33.151913 22.802294 0.93782043 0 24
-33.582455 23.098427 1.8998663 0 25
-34.82687 22.510546 0.0011838585 0 23
-35.221996 22.765938 0.97749555 0 24
-37.106861 22.501938 0.0012389001 0 23
-37.434772 22.700787 1.0204054 0 24
-39.565037 22.466177 0.0012989112 0 23
-39.839466 22.622005 1.0678172 0 24
-42.255699 22.416065 0.0013655634 0 23
-45.217083 22.349146 0.0014399453 0 23
