# .PCD v0.7 - Point Cloud Data file format
VERSION 0.7
FIELDS x y z intensity ring
SIZE 4 4 4 4 2
TYPE F F F F U
COUNT 1 1 1 1 1
WIDTH 1004
HEIGHT 1
VIEWPOINT 0 0 0 1 0 0 0
POINTS 1004
DATA ascii
6.8610945 11.133433 -7.7557421 0 0
7.0677962 11.468846 -7.5712614 0 1
6.3293767 10.96278 -7.507236 0 0
6.3750882 11.041954 -7.1657166 0 1
6.4957514 11.250949 -6.9085307 0 2
5.8869152 10.907537 -7.350688 0 0
5.8747849 10.88506 -6.9516268 0 1
5.910264 10.950798 -6.617352 0 2
5.9915514 11.10141 -6.3362603 0 3
6.1367168 11.370379 -6.1174674 0 4
5.4919662 10.913683 -7.2456322 0 0
5.4441967 10.818755 -6.8066993 0 1
5.4405341 10.811477 -6.4361644 0 2
5.4690595 10.868162 -6.111033 0 3
5.5171962 10.96382 -5.8111529 0 4
5.6044807 11.137273 -5.5516577 0 5
5.7605681 11.447451 -5.3524685 0 6
5.1187067 10.942902 -7.1645555 0 0
5.0599499 10.81729 -6.7116537 0 1
5.0244508 10.741399 -6.3060117 0 2
5.0184741 10.728622 -5.9491405 0 3
5.0360126 10.766117 -5.6274447 0 4
5.065506 10.829168 -5.32342 0 5
5.1176996 10.940749 -5.0448022 0 6
5.1947808 11.105535 -4.7888136 0 7
5.3565822 11.451438 -4.6018267 0 8
4.770822 11.011685 -7.1170187 0 0
4.6873064 10.81892 -6.6264744 0 1
4.6411576 10.712403 -6.2082381 0 2
4.6146984 10.651331 -5.8304458 0 3
4.60637 10.632109 -5.486042 0 4
4.6193366 10.662038 -5.173964 0 5
4.6359973 10.700492 -4.870667 0 6
4.6636038 10.764212 -4.5820332 0 7
4.7147045 10.882158 -4.3169088 0 8
4.7920108 11.060592 -4.072577 0 9
4.9405684 11.403482 -3.8790171 0 10
4.4312897 11.089746 -7.0823627 0 0
4.3377371 10.85562 -6.5700026 0 1
4.2768731 10.703302 -6.1293092 0 2
4.2456136 10.625073 -5.7470112 0 3
4.2201767 10.561415 -5.3848557 0 4
4.2151308 10.548786 -5.0582228 0 5
4.2158747 10.550649 -4.7454357 0 6
4.2286863 10.582711 -4.451283 0 7
4.2538919 10.645791 -4.1729965 0 8
4.2867885 10.728117 -3.9032528 0 9
4.3352733 10.849455 -3.6467366 0 10
4.4062748 11.027143 -3.405283 0 11
4.530869 11.338954 -3.1959853 0 12
4.0758238 10.200157 -2.6034384 0 13
4.108335 10.281519 -2.3534756 0 14
4.1716766 10.440039 -2.1175652 0 15
4.2523632 10.641965 -1.8834838 0 16
4.4155612 11.050384 -1.6723516 0 17
4.1145372 11.221016 -7.0878682 0 0
4.0090351 10.933294 -6.5446858 0 1
3.9409065 10.747497 -6.0873451 0 2
3.8986363 10.632218 -5.6880169 0 3
3.8668776 10.545607 -5.3180261 0 4
3.8546541 10.512272 -4.9856172 0 5
3.8486738 10.495963 -4.669239 0 6
3.8474696 10.492679 -4.3651738 0 7
3.8605566 10.528369 -4.0818596 0 8
3.8767545 10.572543 -3.8046048 0 9
3.9047146 10.648795 -3.5401676 0 10
3.854636 10.512222 -3.2107878 0 11
3.6458154 9.9427347 -2.771817 0 12
3.6570933 9.9734917 -2.5177612 0 13
3.6869259 10.05485 -2.276433 0 14
3.7190719 10.142517 -2.0347323 0 15
3.755157 10.240928 -1.7926943 0 16
3.8138504 10.400993 -1.5568686 0 17
3.8896146 10.607615 -1.3204645 0 18
4.0202994 10.964014 -1.0900154 0 19
3.8159959 11.409302 -7.1346893 0 0
3.69962 11.061355 -6.555089 0 1
3.6285152 10.848761 -6.0832167 0 2
3.5697198 10.672971 -5.6526856 0 3
3.5418491 10.589641 -5.286797 0 4
3.5202925 10.525189 -4.9417958 0 5
3.5077338 10.48764 -4.6188531 0 6
3.5011785 10.468041 -4.3113484 0 7
3.5083871 10.489594 -4.0261335 0 8
3.5106263 10.496289 -3.7393694 0 9
3.4619753 10.350829 -3.4066775 0 10
3.2781107 9.8010998 -2.9636328 0 11
3.2879331 9.8304672 -2.7130973 0 12
3.3004289 9.8678274 -2.4661608 0 13
3.3131592 9.9058895 -2.2202675 0 14
3.3344891 9.9696636 -1.9800428 0 15
3.360419 10.047191 -1.7411817 0 16
3.3860753 10.123899 -1.5002286 0 17
3.4168985 10.216056 -1.2589972 0 18
3.4695969 10.373616 -1.021 0 19
3.5315406 10.55882 -0.77835429 0 20
3.6416426 10.88801 -0.53448784 0 21
3.3895137 10.134179 0.00030506778 0 23
3.2764175 9.7960367 0.2407541 0 24
3.2251418 9.6427298 0.47393936 0 25
3.2097714 9.5967751 0.70801675 0 26
3.2310796 9.6604834 0.95139819 0 27
3.312629 9.9043045 1.2211823 0 28
3.53877 11.68457 -7.2403374 0 0
3.4157577 11.278399 -6.6228938 0 1
3.3331604 11.005673 -6.1150475 0 2
3.2717292 10.802835 -5.6694031 0 3
3.2342284 10.679012 -5.2829018 0 4
3.2082379 10.593195 -4.9284673 0 5
3.1884892 10.527987 -4.5944314 0 6
3.1814144 10.504626 -4.2870483 0 7
3.1797516 10.499137 -3.9931273 0 8
3.1215463 10.306951 -3.638504 0 9
2.9608154 9.7762375 -3.1882892 0 10
2.9565675 9.7622108 -2.9250135 0 11
2.9607759 9.7761059 -2.6735432 0 12
2.9657745 9.7926121 -2.4250932 0 13
2.9696417 9.8053808 -2.1777415 0 14
2.9807234 9.8419704 -1.9368956 0 15
2.9979341 9.898798 -1.6998556 0 16
3.0123296 9.9463301 -1.4605036 0 17
3.0319915 10.011251 -1.2225312 0 18
3.058383 10.098392 -0.98486775 0 19
2.9420543 9.7142906 -0.70958281 0 20
2.803304 9.2561541 -0.4502461 0 21
2.7121377 8.9551353 -0.21755031 0 22
2.6525238 8.758297 0.00026125074 0 23
2.6159184 8.6374311 0.21034779 0 24
2.5945721 8.5669479 0.41723332 0 25
2.5813165 8.52318 0.62308884 0 26
2.5897598 8.5510588 0.83447522 0 27
2.6026249 8.5935373 1.0499257 0 28
2.6362953 8.7047129 1.2787158 0 29
2.691256 8.8861866 1.5265108 0 30
2.7920413 9.2189665 1.8148581 0 31
3.2807434 12.070526 -7.4180999 0 0
3.1598215 11.62563 -6.7707577 0 1
3.0606802 11.260869 -6.205482 0 2
2.993758 11.014648 -5.7331147 0 3
2.9417751 10.823393 -5.3103762 0 4
2.9113269 10.711368 -4.9425406 0 5
2.8912826 10.637621 -4.6041698 0 6
2.8790421 10.592586 -4.2874603 0 7
2.8720319 10.566793 -3.9858704 0 8
2.6646848 9.8039207 -3.4325185 0 9
2.658452 9.7809887 -3.163655 0 10
2.6472652 9.73983 -2.8943529 0 11
2.6473632 9.7401915 -2.6418562 0 12
2.6502833 9.7509356 -2.3949509 0 13
2.6490963 9.7465677 -2.1469107 0 14
2.6576512 9.7780428 -1.908519 0 15
2.6605949 9.7888727 -1.6671807 0 16
2.6695879 9.8219604 -1.4304026 0 17
2.6286302 9.6712685 -1.1713197 0 18
2.4756439 9.1084003 -0.88102496 0 19
2.3836293 8.7698603 -0.63533837 0 20
2.3199136 8.5354376 -0.4117803 0 21
2.2731848 8.363512 -0.20151003 0 22
2.2404258 8.2429857 0.00024386124 0 23
2.2213688 8.1728706 0.19740056 0 24
2.2081704 8.1243105 0.3924278 0 25
2.201175 8.0985737 0.58718812 0 26
2.2009797 8.0978546 0.78376156 0 27
2.2061357 8.1168251 0.98354268 0 28
2.2215886 8.1736794 1.1908516 0 29
2.2426872 8.2513056 1.405813 0 30
2.2798796 8.3881435 1.6377466 0 31
3.0241446 12.53697 -7.6482735 0 0
2.9202697 12.106343 -6.9990339 0 1
2.8158867 11.673611 -6.3857689 0 2
2.7360351 11.342576 -5.8605189 0 3
2.6747022 11.088312 -5.4004717 0 4
2.6352022 10.92456 -5.0039577 0 5
2.6074207 10.809389 -4.6442151 0 6
2.59023 10.738122 -4.3145037 0 7
2.5259829 10.471778 -3.9210715 0 8
2.3735902 9.8400154 -3.4198985 0 9
2.3624275 9.7937384 -3.1445553 0 10
2.3548734 9.7624226 -2.8797982 0 11
2.3490305 9.7382002 -2.6219521 0 12
2.345746 9.7245846 -2.3709681 0 13
2.3463726 9.7271814 -2.1269324 0 14
2.3477557 9.7329149 -1.8857836 0 15
2.3490131 9.7381277 -1.6463789 0 16
2.2444189 9.3045197 -1.3451121 0 17
2.1323907 8.8400917 -1.062804 0 18
2.0556843 8.5220966 -0.8182705 0 19
2.0047724 8.3110352 -0.59768438 0 20
1.9674847 8.1564541 -0.39061195 0 21
1.9376431 8.0327415 -0.19212157 0 22
1.9184173 7.9530392 0.00023355853 0 23
1.9009191 7.8804979 0.18894342 0 24
1.8971453 7.8648534 0.37711015 0 25
1.8896384 7.8337326 0.56382173 0 26
1.8851238 7.8150167 0.75084144 0 27
1.8890753 7.831398 0.9419995 0 28
1.8992949 7.8737645 1.1387459 0 29
1.9112982 7.9235253 1.3400707 0 30
1.9322922 8.0105591 1.5525589 0 31
2.7413483 12.988547 -7.8725262 0 0
2.6478083 12.545353 -7.2059412 0 1
2.5692897 12.173331 -6.6160707 0 2
2.5067799 11.877158 -6.0970483 0 3
2.442215 11.571249 -5.5992413 0 4
2.3802757 11.277781 -5.1323476 0 5
2.3384204 11.079469 -4.7294736 0 6
2.3147535 10.967335 -4.3781066 0 7
2.1028614 9.9633875 -3.7065859 0 8
2.0925033 9.9143095 -3.4234393 0 9
2.0772469 9.8420258 -3.139626 0 10
2.0691338 9.8035851 -2.8732412 0 11
2.0632195 9.7755632 -2.6149931 0 12
2.057693 9.7493792 -2.3616436 0 13
2.051945 9.7221441 -2.1120853 0 14
2.0505884 9.7157173 -1.8702794 0 15
1.9398972 9.1912603 -1.5438749 0 16
1.8394269 8.7152309 -1.2517745 0 17
1.7751091 8.4104919 -1.0046169 0 18
1.7309572 8.2012997 -0.78237653 0 19
1.6968757 8.0398207 -0.57444161 0 20
1.671295 7.9186192 -0.37676999 0 21
1.6524335 7.8292532 -0.18604387 0 22
1.6353595 7.7483568 0.00022607624 0 23
1.6262883 7.7053771 0.18355013 0 24
1.6199019 7.6751184 0.36563301 0 25
1.6108228 7.6321011 0.54575777 0 26
1.6100562 7.6284685 0.7281794 0 27
1.6134111 7.6443644 0.91355658 0 28
1.6209736 7.6801958 1.1035688 0 29
1.6267519 7.7075734 1.2951189 0 30
1.6431848 7.7854328 1.4991693 0 31
2.4191458 13.34607 -8.0438347 0 0
2.3453984 12.939217 -7.3904691 0 1
2.2915666 12.642234 -6.8323598 0 2
2.2449987 12.385325 -6.3222356 0 3
2.2271607 12.286916 -5.9121847 0 4
2.2542677 12.436461 -5.6278872 0 5
2.1136408 11.660644 -4.9496284 0 6
1.9965708 11.014786 -4.3723755 0 7
1.831581 10.104562 -3.7380121 0 8
1.8150514 10.013371 -3.4382434 0 9
1.8024082 9.9436197 -3.1542356 0 10
1.7905052 9.8779526 -2.8787918 0 11
1.780313 9.821723 -2.6125984 0 12
1.7725284 9.7787771 -2.355473 0 13
1.7671876 9.7493124 -2.1061027 0 14
1.6759422 9.2459249 -1.769857 0 15
1.5766823 8.6983232 -1.4528767 0 16
1.5213859 8.393261 -1.1987652 0 17
1.4797671 8.1636562 -0.96966106 0 18
1.4461521 7.9782076 -0.75682354 0 19
1.4241956 7.8570771 -0.55823451 0 20
1.4057791 7.7554755 -0.36693698 0 21
1.3909127 7.6734595 -0.18131863 0 22
1.3800558 7.613564 0.00022089684 0 23
1.3695598 7.5556588 0.17897375 0 24
1.3636602 7.5231118 0.35638055 0 25
1.3634188 7.52178 0.53485072 0 26
1.3558099 7.4798031 0.7099821 0 27
1.3613745 7.5105023 0.89252263 0 28
1.3659315 7.5356426 1.076722 0 29
1.3709033 7.5630703 1.2637067 0 30
1.3796333 7.6112328 1.4574013 0 31
2.0670023 13.618853 -8.1691275 0 0
2.0089018 13.236046 -7.523982 0 1
1.960922 12.919921 -6.9491582 0 2
1.932013 12.729449 -6.4669323 0 3
1.9407656 12.787118 -6.1235495 0 4
1.5921521 10.490209 -4.1442981 0 7
1.557816 10.263979 -3.7788916 0 8
1.5441712 10.174077 -3.4767768 0 9
1.525589 10.051644 -3.1733077 0 10
1.514796 9.9805326 -2.8948262 0 11
1.5031836 9.9040213 -2.6219354 0 12
1.49625 9.8583384 -2.3633213 0 13
1.4318777 9.4342089 -2.0283201 0 14
1.340434 8.8317137 -1.6825123 0 15
1.2805989 8.4374781 -1.4025919 0 16
1.2396078 8.1674004 -1.1609478 0 17
1.2123355 7.987711 -0.94424146 0 18
1.1905035 7.8438673 -0.74053401 0 19
1.1720054 7.7219887 -0.54602218 0 20
1.1562942 7.6184731 -0.3587372 0 21
1.1476829 7.5617352 -0.17782718 0 22
1.1368208 7.4901681 0.00021628109 0 23
1.1294802 7.4418035 0.17543679 0 24
1.1244812 7.4088659 0.34929606 0 25
1.1232402 7.4006901 0.5237326 0 26
1.1205341 7.3828592 0.69744068 0 27
1.1226175 7.3965869 0.87479663 0 28
1.127121 7.4262586 1.0560362 0 29
1.1294533 7.4416256 1.2374892 0 30
1.1410583 7.5180879 1.4327056 0 31
1.6990426 13.864855 -8.2840309 0 0
1.6497009 13.462208 -7.6224923 0 1
1.6114076 13.149719 -7.0449848 0 2
1.5937901 13.005953 -6.5814581 0 3
1.6319003 13.316948 -6.3522344 0 4
1.324874 10.811493 -4.2544532 0 7
1.2899684 10.526649 -3.8603799 0 8
1.2674114 10.342575 -3.5204785 0 9
1.2529606 10.22465 -3.2152503 0 10
1.239832 10.117517 -2.9230344 0 11
1.2285537 10.02548 -2.6436675 0 12
1.2138194 9.9052429 -2.3652408 0 13
1.1096413 9.055109 -1.9391701 0 14
1.0505927 8.5732489 -1.6268591 0 15
1.0138472 8.2733917 -1.3699147 0 16
0.98457259 8.0344992 -1.1375721 0 17
0.96484435 7.8735089 -0.92708653 0 18
0.94754285 7.7323217 -0.72713649 0 19
0.93564308 7.6352148 -0.5377664 0 20
0.92402142 7.5403781 -0.35366562 0 21
0.91571492 7.4725933 -0.1750408 0 22
0.90754688 7.4059391 0.00021300917 0 23
0.90404791 7.3773861 0.17323522 0 24
0.90045202 7.3480425 0.34506813 0 25
0.90036267 7.3473134 0.51791346 0 26
0.89976668 7.3424497 0.69089949 0 27
0.89764851 7.3251648 0.86294746 0 28
0.90079975 7.3508801 1.0412123 0 29
0.90424818 7.3790202 1.2222598 0 30
0.90930855 7.4203148 1.4085205 0 31
1.3251425 14.170215 -8.4402828 0 0
1.2810514 13.698732 -7.7324162 0 1
1.2530346 13.399139 -7.1564002 0 2
1.250084 13.367588 -6.7435274 0 3
1.8204882 19.467121 -9.2571573 0 4
1.8190631 19.451881 -8.699234 0 5
1.8198297 19.460077 -8.1632948 0 6
1.8201284 19.463272 -7.635335 0 7
1.0260347 10.97175 -4.0111599 0 8
0.99829429 10.675112 -3.6224265 0 9
0.97858089 10.46431 -3.2804317 0 10
0.96518964 10.321113 -2.9726286 0 11
0.95291388 10.189843 -2.678695 0 12
0.88827771 9.4986658 -2.2611377 0 13
0.82618648 8.8347025 -1.8861156 0 14
0.7874946 8.4209566 -1.5930158 0 15
0.76123214 8.1401234 -1.3436774 0 16
0.74363172 7.9519157 -1.1223956 0 17
0.7284953 7.7900562 -0.91442198 0 18
0.71657848 7.6626258 -0.71835274 0 19
0.7055763 7.5449753 -0.52976626 0 20
0.69931316 7.4780016 -0.34965473 0 21
0.69270307 7.4073172 -0.17297487 0 22
0.6880554 7.3576183 0.0002109646 0 23
0.6858089 7.3335958 0.1716741 0 24
0.68268681 7.30021 0.34176114 0 25
0.68276185 7.3010125 0.51305729 0 26
0.6811884 7.2841873 0.68329638 0 27
0.6821112 7.294055 0.85662377 0 28
0.68277484 7.3011513 1.0309687 0 29
0.68491739 7.3240623 1.2094029 0 30
0.68907017 7.3684697 1.3943514 0 31
1.2095183 18.710344 -11.119291 0 0
0.91260606 14.117332 -7.9506435 0 1
0.8940661 13.830533 -7.3700666 0 2
1.2095279 18.710491 -9.4174662 0 3
1.2093477 18.707705 -8.8758764 0 4
1.2092394 18.706028 -8.3467188 0 5
1.2097495 18.713919 -7.8325009 0 6
1.2094114 18.708689 -7.3226857 0 7
1.2092874 18.706772 -6.8235073 0 8
0.73267496 11.333934 -3.8372722 0 9
0.70177376 10.855915 -3.3954837 0 10
0.68569398 10.607173 -3.0480955 0 11
0.67383665 10.423749 -2.7339747 0 12
0.59912622 9.268034 -2.2012372 0 13
0.56129593 8.6828279 -1.8494917 0 14
0.53846759 8.3296909 -1.5721802 0 15
0.52161413 8.0689802 -1.3289158 0 16
0.50998634 7.8891072 -1.1110072 0 17
0.50013614 7.7367315 -0.90610468 0 18
0.49210942 7.6125646 -0.71204251 0 19
0.48478699 7.4992919 -0.52536553 0 20
0.48140183 7.4469261 -0.34741271 0 21
0.47721103 7.3820972 -0.17199531 0 22
0.47390449 7.3309474 0.00020972357 0 23
0.47160894 7.2954373 0.17039387 0 24
0.46999973 7.2705441 0.33960104 0 25
0.46967572 7.265532 0.5094071 0 26
0.46875972 7.2513618 0.67867589 0 27
0.46964231 7.2650151 0.85127997 0 28
0.47013363 7.2726154 1.0246122 0 29
0.47091573 7.2847137 1.2001796 0 30
0.47322661 7.3204613 1.3821278 0 31
0.66070247 18.414427 -10.927665 0 0
0.66076612 18.416201 -10.35675 0 1
0.66007739 18.397005 -9.789341 0 2
0.66041756 18.406485 -9.2511044 0 3
0.6607101 18.414639 -8.7242432 0 4
0.6604324 18.406898 -8.2014122 0 5
0.66063464 18.412535 -7.6952567 0 6
0.66056627 18.410631 -7.1956415 0 7
0.66071278 18.414715 -6.7072988 0 8
0.66065377 18.413069 -6.2250371 0 9
0.66061372 18.411953 -5.7505441 0 10
0.4013283 11.185414 -3.2096291 0 11
0.36484647 10.16863 -2.6632185 0 12
0.32876962 9.1631327 -2.1731863 0 13
0.30916324 8.616684 -1.8327581 0 14
0.29705176 8.2791243 -1.5603846 0 15
0.28802261 8.0274734 -1.3201751 0 16
0.28162354 7.8491249 -1.103784 0 17
0.27579516 7.6866822 -0.89894599 0 18
0.2720038 7.5810132 -0.70806968 0 19
0.26819453 7.4748449 -0.52289838 0 20
0.26588821 7.4105654 -0.3452183 0 21
0.2635836 7.346334 -0.17091545 0 22
0.26229784 7.3104982 0.00020883723 0 23
0.26104054 7.275456 0.16968235 0 24
0.26052681 7.2611384 0.33867306 0 25
0.26015964 7.2509046 0.50764906 0 26
0.26030448 7.2549415 0.67803258 0 27
0.25989392 7.2434988 0.84753585 0 28
0.25988406 7.2432237 1.019001 0 29
0.2608211 7.2693405 1.1959213 0 30
0.2618196 7.2971697 1.3757452 0 31
0.1311675 18.283657 -10.843364 0 0
0.13114119 18.279989 -10.273802 0 1
0.1311975 18.28784 -9.7252445 0 2
0.13124359 18.294262 -9.1890249 0 3
0.13122077 18.291082 -8.6603565 0 4
0.13126993 18.297935 -8.1478291 0 5
0.13128178 18.299585 -7.6433296 0 6
0.13127193 18.298214 -7.1472893 0 7
0.1313069 18.303087 -6.6625247 0 8
0.13134252 18.308052 -6.1857123 0 9
0.13129698 18.301706 -5.7125816 0 10
0.12743799 17.763794 -5.0941334 0 11
0.072383486 10.089655 -2.6409032 0 12
0.065463863 9.1251173 -2.1628344 0 13
0.061625898 8.5901375 -1.8259836 0 14
0.059137668 8.2432985 -1.5526733 0 15
0.057495359 8.0143738 -1.3172071 0 16
0.056116186 7.8221288 -1.0993086 0 17
0.055181596 7.691855 -0.89899564 0 18
0.054293364 7.5680428 -0.70642185 0 19
0.05367795 7.4822593 -0.52309394 0 20
0.053048857 7.3945689 -0.34426045 0 21
0.052665144 7.3410826 -0.17068784 0 22
0.052318994 7.2928319 0.00020820394 0 23
0.052315719 7.2923756 0.16997196 0 24
0.052063774 7.2572565 0.33828303 0 25
0.051902156 7.2347283 0.50620383 0 26
0.051824592 7.2239165 0.67471629 0 27
0.051852737 7.2278399 0.84518158 0 28
0.052107293 7.2633228 1.0211978 0 29
0.052182309 7.2737794 1.1959127 0 30
0.052356612 7.2980757 1.3750666 0 31
-0.39376533 18.297871 -10.854027 0 0
-0.39393732 18.305864 -10.290462 0 1
-0.39398989 18.308306 -9.7381325 0 2
-0.39413017 18.314825 -9.2012463 0 3
-0.39408976 18.312948 -8.672493 0 4
-0.39425433 18.320595 -8.1595984 0 5
-0.39468691 18.340696 -7.662077 0 6
-0.39443016 18.328766 -7.160696 0 7
-0.39438167 18.326513 -6.6724243 0 8
-0.39451095 18.33252 -6.1952538 0 9
-0.39433074 18.324146 -5.7207632 0 10
-0.38287556 17.791836 -5.1032248 0 11
-0.21872659 10.164001 -2.6609104 0 12
-0.19703597 9.1560593 -2.170615 0 13
-0.1855384 8.6217794 -1.8330868 0 14
-0.17812493 8.2772837 -1.5593954 0 15
-0.17270067 8.0252237 -1.3192617 0 16
-0.16883916 7.8457828 -1.1028597 0 17
-0.16591898 7.7100849 -0.9013117 0 18
-0.16353114 7.5991249 -0.70946914 0 19
-0.1611919 7.4904227 -0.52377242 0 20
-0.15935513 7.4050698 -0.34482029 0 21
-0.15860566 7.3702431 -0.17140111 0 22
-0.15737504 7.3130565 0.00020882431 0 23
-0.15651311 7.2730041 0.16955532 0 24
-0.15653159 7.2738624 0.33912686 0 25
-0.15579222 7.2395053 0.50664234 0 26
-0.15607299 7.2525525 0.67753023 0 27
-0.15610638 7.2541041 0.84842736 0 28
-0.15644431 7.2698069 1.0223198 0 29
-0.15670913 7.2821131 1.1975293 0 30
-0.15750842 7.3192544 1.3793408 0 31
-0.92792726 18.466597 -10.965394 0 0
-0.92780608 18.464184 -10.390149 0 1
-0.92844445 18.476889 -9.8379221 0 2
-0.92823952 18.472811 -9.2901754 0 3
-0.92887646 18.485485 -8.7632189 0 4
-0.92895561 18.487061 -8.242218 0 5
-0.92900318 18.488008 -7.7315731 0 6
-0.92989218 18.505701 -7.237267 0 7
-0.92991978 18.506248 -6.7448034 0 8
-0.92994517 18.506754 -6.2605753 0 9
-0.93011123 18.510059 -5.7847567 0 10
-0.9008944 17.928617 -5.1477542 0 11
-0.5261358 10.470581 -2.7439954 0 12
-0.4673568 9.3008251 -2.2072053 0 13
-0.43812025 8.7189913 -1.8556645 0 14
-0.41885895 8.3356743 -1.5720133 0 15
-0.40718585 8.1033688 -1.3334799 0 16
-0.39753866 7.9113808 -1.1132261 0 17
-0.38936266 7.7486711 -0.90675533 0 18
-0.38303646 7.6227736 -0.71241003 0 19
-0.37789735 7.5205011 -0.52641726 0 20
-0.37428582 7.4486279 -0.34720582 0 21
-0.37202585 7.4036522 -0.1723554 0 22
-0.36837715 7.3310404 0.00020955343 0 23
-0.36709175 7.3054595 0.17048736 0 24
-0.36649463 7.2935762 0.3403962 0 25
-0.36510268 7.2658753 0.50901145 0 26
-0.36456576 7.2551899 0.67847472 0 27
-0.3644717 7.2533178 0.84920913 0 28
-0.3660748 7.2852211 1.0255426 0 29
-0.36711401 7.3059025 1.2026788 0 30
-0.36839959 7.3314867 1.3830689 0 31
-1.4889801 18.833267 -11.203883 0 0
-1.490086 18.847256 -10.6254 0 1
-1.4908898 18.857422 -10.059175 0 2
-1.4922097 18.874117 -9.5096169 0 3
-1.4922403 18.874504 -8.9642477 0 4
-1.4922714 18.874897 -8.4307528 0 5
-1.4932631 18.887442 -7.9132767 0 6
-1.49307 18.885 -7.3993154 0 7
-1.4939442 18.896055 -6.8996572 0 8
-1.4938536 18.894909 -6.403749 0 9
-1.494411 18.90196 -5.9181995 0 10
-1.4378341 18.186352 -5.2314496 0 11
-0.91825551 11.614494 -3.0494282 0 12
-0.75429255 9.5406199 -2.2683148 0 13
-0.7010572 8.8672762 -1.8907275 0 14
-0.66738015 8.4413147 -1.5948912 0 15
-0.64659238 8.178381 -1.3483224 0 16
-0.63061601 7.976306 -1.1244453 0 17
-0.61640078 7.7965045 -0.91404665 0 18
-0.60743475 7.6830988 -0.71938086 0 19
-0.59938222 7.5812469 -0.53165448 0 20
-0.59224015 7.4909105 -0.34982497 0 21
-0.58667922 7.4205742 -0.17307004 0 22
-0.58339077 7.3789802 0.00021131533 0 23
-0.5802871 7.3397236 0.17160498 0 24
-0.57889509 7.3221169 0.34236261 0 25
-0.57770002 7.3070006 0.51284283 0 26
-0.57789969 7.3095264 0.684825 0 27
-0.57760853 7.3058438 0.85694671 0 28
-0.5780853 7.3118739 1.0312053 0 29
-0.58049977 7.3424134 1.2109331 0 30
-0.58505082 7.3999777 1.3985811 0 31
-2.0214288 18.716169 -5.3983212 0 11
-2.0191996 18.695528 -4.9217677 0 12
-1.080567 10.004841 -2.3850758 0 13
-0.98573697 9.1268215 -1.9512976 0 14
-0.93328655 8.6411896 -1.6370418 0 15
-0.89981323 8.3312635 -1.3772174 0 16
-0.87402672 8.0925093 -1.143892 0 17
-0.85305232 7.8983102 -0.92846996 0 18
-0.83925408 7.7705536 -0.7295242 0 19
-0.8274551 7.6613083 -0.5387125 0 20
-0.81551224 7.5507307 -0.35356596 0 21
-0.81008387 7.5004702 -0.17540345 0 22
-0.80520493 7.455297 0.00021407446 0 23
-0.80083561 7.4148417 0.17382702 0 24
-0.79671043 7.376647 0.34583896 0 25
-0.79539794 7.3644948 0.51826674 0 26
-0.79427886 7.3541336 0.69085538 0 27
-0.79495138 7.3603601 0.86566085 0 28
-0.79655719 7.3752279 1.0429348 0 29
-0.80021858 7.4091287 1.2252189 0 30
-0.80567288 7.4596291 1.4136431 0 31
-1.5380194 11.21597 -2.6832168 0 13
-1.3113036 9.5626497 -2.0516779 0 14
-1.2238607 8.9249754 -1.6967592 0 15
-1.167677 8.5152569 -1.4125907 0 16
-1.1290666 8.2336912 -1.1679475 0 17
-1.1017395 8.0344095 -0.94779533 0 18
-1.0812577 7.8850455 -0.74288046 0 19
-1.0646479 7.7639194 -0.54785055 0 20
-1.0535024 7.6826415 -0.36100981 0 21
-1.0416232 7.5960126 -0.17826344 0 22
-1.0324973 7.5294614 0.00021696556 0 23
-1.0278862 7.4958353 0.17634471 0 24
-1.0210823 7.446218 0.35033023 0 25
-1.0217202 7.45087 0.52619213 0 26
-1.0191402 7.432056 0.7006346 0 27
-1.0205554 7.4423757 0.87838972 0 28
-1.0240955 7.4681921 1.0598006 0 29
-1.0278755 7.4957576 1.2439102 0 30
-1.0346262 7.5449872 1.434855 0 31
-1.7297435 10.390037 -2.2389233 0 14
-1.5579367 9.3580456 -1.7868562 0 15
-1.4688314 8.8228178 -1.4699993 0 16
-1.4100739 8.4698792 -1.2066942 0 17
-1.3700584 8.2295189 -0.97504866 0 18
-1.3421912 8.062129 -0.76287907 0 19
-1.3178476 7.9159045 -0.56101286 0 20
-1.3008511 7.8138118 -0.36877593 0 21
-1.2868521 7.7297239 -0.18219306 0 22
-1.2752568 7.6600742 0.00022169255 0 23
-1.2671673 7.6114836 0.17984688 0 24
-1.2614413 7.5770893 0.35804328 0 25
-1.2587045 7.5606503 0.53627521 0 26
-1.2581789 7.5574932 0.71556908 0 27
-1.2573175 7.5523186 0.89525592 0 28
-1.2621971 7.5816298 1.0805938 0 29
-1.2691301 7.6232738 1.2705925 0 30
-1.2805893 7.6921058 1.4692171 0 31
-2.0095217 10.246589 -1.9667194 0 15
-1.83123 9.3374758 -1.5638604 0 16
-1.733004 8.8366194 -1.2655078 0 17
-1.6712674 8.5218239 -1.0149463 0 18
-1.6246611 8.2841778 -0.78797781 0 19
-1.5927502 8.1214628 -0.57858241 0 20
-1.5677956 7.9942193 -0.37925768 0 21
-1.5505059 7.9060588 -0.18732104 0 22
-1.5324798 7.8141427 0.00022733072 0 23
-1.5234799 7.7682524 0.18450817 0 24
-1.5143787 7.7218451 0.36678609 0 25
-1.5141861 7.7208638 0.55049467 0 26
-1.5143976 7.7219419 0.73495209 0 27
-1.5146784 7.7233729 0.92030662 0 28
-1.5196074 7.7485065 1.110137 0 29
-1.5294414 7.7986498 1.3066006 0 30
-1.5441394 7.8735957 1.511724 0 31
-2.3593392 10.435545 -1.7583834 0 16
-2.1458874 9.4914312 -1.3675408 0 17
-2.0306604 8.9817724 -1.0762236 0 18
-1.9569581 8.6557817 -0.82832515 0 19
-1.9024826 8.4148321 -0.60312366 0 20
-1.8632504 8.2413044 -0.39335462 0 21
-1.8408142 8.1420679 -0.19408466 0 22
-1.8191143 8.0460873 0.00023550031 0 23
-1.8028051 7.9739504 0.19054422 0 24
-1.7955096 7.9416819 0.37951961 0 25
-1.7917992 7.9252701 0.56850106 0 26
-1.7900609 7.9175816 0.75814974 0 27
-1.7921815 7.9269614 0.95030332 0 28
-1.800971 7.9658384 1.1482066 0 29
-1.8138679 8.0228825 1.3523334 0 30
-1.8357919 8.119854 1.5684749 0 31
-2.7378206 10.675891 -1.5488826 0 17
-2.5330827 9.877533 -1.1917763 0 18
-2.3824041 9.2899752 -0.89518929 0 19
-2.2875774 8.920207 -0.64378613 0 20
-2.223793 8.6714849 -0.41676143 0 21
-2.1820617 8.5087566 -0.20423415 0 22
-2.1496646 8.3824282 0.00024704859 0 23
-2.1295724 8.30408 0.19981106 0 24
-2.1134584 8.2412453 0.39657044 0 25
-2.1080551 8.2201757 0.5937506 0 26
-2.103508 8.2024441 0.79088169 0 27
-2.1160944 8.251523 0.99608272 0 28
-2.127743 8.2969465 1.2042388 0 29
-2.1541901 8.400074 1.4257464 0 30
-2.1924224 8.5491581 1.6628706 0 31
-3.0756571 10.706829 -1.5655326 0 17
-2.9760849 10.360203 -1.2597992 0 18
-2.9128909 10.140215 -0.98476887 0 19
-2.8707008 9.9933443 -0.72688282 0 20
-2.7329569 9.5138369 -0.46082559 0 21
-2.6437538 9.2033081 -0.22263478 0 22
-2.5825698 8.9903173 0.00026703879 0 23
-2.5399177 8.8418388 0.21441612 0 24
-2.5167956 8.7613478 0.42489856 0 25
-2.4986551 8.6981974 0.63319731 0 26
-2.5076158 8.7293911 0.84827954 0 27
-2.5241551 8.7869673 1.0690231 0 28
-2.5552197 8.8951073 1.3011649 0 29
-2.6230779 9.1313314 1.5619967 0 30
-2.7427943 9.5480833 1.8717083 0 31
-3.4297774 10.765631 -1.5878687 0 17
-3.3048735 10.373573 -1.2724342 0 18
-3.2332892 10.148879 -0.99421227 0 19
-3.1844521 9.9955864 -0.73339117 0 20
-3.14622 9.8755798 -0.48252228 0 21
-3.1258569 9.8116636 -0.23942284 0 22
-3.1082952 9.7565393 0.00029232708 0 23
-3.1037126 9.7421551 0.23831081 0 24
-3.1005235 9.7321453 0.47609848 0 25
-3.1115346 9.7667074 0.71718609 0 26
-3.1308186 9.8272371 0.96329737 0 27
-3.1635342 9.9299269 1.2186192 0 28
-3.2037616 10.056196 1.4838457 0 29
-3.2665958 10.253425 1.7692482 0 30
-3.3724551 10.585704 2.0932233 0 31
-3.77598 10.773479 -1.6043487 0 17
-3.6465194 10.404106 -1.2884853 0 18
-3.5683556 10.181092 -1.0069852 0 19
-3.5108824 10.017112 -0.74205762 0 20
-3.4730802 9.909256 -0.48883638 0 21
-3.438838 9.8115578 -0.24172893 0 22
-3.4245875 9.7708988 0.00029558028 0 23
-3.4135528 9.7394142 0.2405411 0 24
-3.4176688 9.7511587 0.48162848 0 25
-3.4341075 9.7980614 0.7264263 0 26
-3.4531283 9.8523302 0.97506958 0 27
-3.4853168 9.944169 1.2321347 0 28
-3.5278885 10.065633 1.4995599 0 29
-3.6049552 10.285517 1.7918997 0 30
-3.7294941 10.640846 2.1244168 0 31
-4.142612 10.815106 -1.6275817 0 17
-3.9909296 10.419109 -1.3039906 0 18
-3.8999269 10.181528 -1.0176792 0 19
-3.8402939 10.025845 -0.75055975 0 20
-3.7965975 9.911767 -0.49413168 0 21
-3.7651699 9.8297186 -0.24473773 0 22
-3.7502367 9.7907324 0.00029931281 0 23
-3.7381339 9.7591362 0.24357739 0 24
-3.7394173 9.7624865 0.48728782 0 25
-3.7561197 9.8060913 0.73471093 0 26
-3.7761974 9.8585081 0.98600024 0 27
-3.8220558 9.9782305 1.2494314 0 28
-3.875365 10.117405 1.5232143 0 29
-3.9587696 10.335149 1.8195899 0 30
-4.0967069 10.695261 2.1578643 0 31
-4.3510938 10.451471 -1.3231239 0 18
-4.2478805 10.20355 -1.0316406 0 19
-4.1713662 10.01976 -0.75875372 0 20
-4.1299739 9.9203339 -0.50026155 0 21
-4.095293 9.8370304 -0.24774393 0 22
-4.0806537 9.8018656 0.00030310845 0 23
-4.0703573 9.777133 0.24684045 0 24
-4.0655332 9.7655458 0.49306121 0 25
-4.0856118 9.8137751 0.74376523 0 26
-4.1155467 9.8856792 1.0001187 0 27
-4.1541681 9.9784498 1.2638663 0 28
-4.2196264 10.135683 1.5435622 0 29
-4.3217359 10.380953 1.8487287 0 30
-4.5025539 10.815284 2.2072415 0 31
-5.2116952 11.571433 -1.1845762 0 19
-4.5423045 10.085196 -0.7732619 0 20
-4.4776559 9.941659 -0.50760794 0 21
-4.4409847 9.8602381 -0.25143468 0 22
-4.4240208 9.8225737 0.0003075483 0 23
-4.4106455 9.7928772 0.25033054 0 24
-4.4166455 9.8061991 0.50130695 0 25
-4.4284945 9.8325062 0.75450611 0 26
-4.4627957 9.9086647 1.0149833 0 27
-4.511435 10.016659 1.2845756 0 28
-4.9793034 11.055458 1.7046945 0 29
-5.7338495 11.813479 -1.2256953 0 19
-5.3585191 11.040184 -0.85792112 0 20
-5.2347188 10.785118 -0.55811447 0 21
-5.167644 10.646924 -0.27516344 0 22
-5.1332316 10.576023 0.00033561338 0 23
-5.113225 10.534804 0.27293473 0 24
-5.1186428 10.545966 0.54640949 0 25
-5.1503105 10.611211 0.82526284 0 26
-5.2092147 10.732572 1.1142339 0 27
-5.3199506 10.960722 1.4246389 0 28
-5.5512614 11.437292 1.7874005 0 29
-6.4688077 13.327718 2.7912276 0 31
-5.7697277 11.067434 -0.87254655 0 20
-5.626729 10.793136 -0.5666523 0 21
-5.543963 10.634375 -0.27883622 0 22
-5.4967422 10.543797 0.0003394568 0 23
-5.4862919 10.523751 0.27661362 0 24
-5.4852586 10.521768 0.55308414 0 25
-5.5237265 10.595557 0.83602977 0 26
-5.591773 10.726084 1.1297553 0 27
-5.7033334 10.940078 1.4426355 0 28
-5.9369931 11.388281 1.8056246 0 29
-6.4355216 12.344554 2.2888088 0 30
-6.629159 12.715986 2.7018433 0 31
-6.2157373 11.131796 -0.89131713 0 20
-6.043087 10.822596 -0.57706642 0 21
-5.9486232 10.653419 -0.28369495 0 22
-5.8949656 10.557323 0.00034519675 0 23
-5.8730612 10.518095 0.28077954 0 24
-5.8715825 10.515447 0.56137824 0 25
-5.9144759 10.592265 0.8488133 0 26
-5.9851627 10.718858 1.1466136 0 27
-6.1096368 10.941779 1.4653777 0 28
-6.371417 11.410604 1.8373981 0 29
-6.7955456 12.170177 2.2916927 0 30
-7.1055436 12.725353 2.7460303 0 31
-6.692492 11.217048 -0.9131456 0 20
-6.4828291 10.865639 -0.58903903 0 21
-6.3789539 10.691537 -0.28946573 0 22
-6.3140664 10.582782 0.00035180917 0 23
-6.28721 10.537768 0.28600356 0 24
-6.2851372 10.534294 0.57177842 0 25
-6.3232613 10.598193 0.86347467 0 26
-6.4126582 10.748028 1.1689389 0 27
-6.5690904 11.010219 1.4991738 0 28
-6.859931 11.497685 1.8823463 0 29
-7.305366 12.244264 2.3441565 0 30
-7.6892819 12.887731 2.8275244 0 31
-7.1709628 11.271063 -0.93391132 0 20
-6.950098 10.923916 -0.60276288 0 21
-6.8319602 10.738231 -0.29591641 0 22
-6.7507648 10.610611 0.00035902692 0 23
-6.7404141 10.594342 0.29266858 0 24
-6.7357979 10.587087 0.58489519 0 25
-6.7980437 10.684922 0.88607085 0 26
-6.8887091 10.827427 1.1985816 0 27
-7.067996 11.109223 1.5396396 0 28
-7.4252596 11.670757 1.9447664 0 29
-7.9161916 12.442387 2.4245822 0 30
-8.3771963 13.166977 2.9403248 0 31
-7.68822 11.351406 -0.9584558 0 20
-7.4390507 10.983516 -0.61757708 0 21
-7.3007689 10.779346 -0.30269861 0 22
-7.2288737 10.673196 0.00036801267 0 23
-7.2021551 10.633746 0.29934368 0 24
-7.2173543 10.656188 0.59990865 0 25
-7.2822428 10.751993 0.90858954 0 26
-7.4161539 10.949709 1.2351695 0 27
-7.6546979 11.301911 1.5961324 0 28
-8.0743732 11.921548 2.0243366 0 29
-8.6212769 12.729034 2.5276117 0 30
-9.1337614 13.485701 3.0687704 0 31
-8.2226181 11.420542 -0.98381281 0 20
-7.9470143 11.037751 -0.6331895 0 21
-7.8053889 10.841045 -0.31059355 0 22
-7.7283154 10.733996 0.0003776009 0 23
-7.7099466 10.708483 0.30754951 0 24
-7.7526002 10.767725 0.61845845 0 25
-7.8470345 10.898888 0.93964583 0 26
-8.0329866 11.15716 1.284047 0 27
-8.3531265 11.601808 1.6716524 0 28
-8.8248034 12.256927 2.1234155 0 29
-9.4121599 13.072718 2.6484032 0 30
-9.958909 13.832108 3.2113123 0 31
-8.7698412 11.471657 -1.0094811 0 20
-8.4687529 11.07781 -0.64916229 0 21
-8.31637 10.878481 -0.3183727 0 22
-8.2543221 10.797317 0.00038800176 0 23
-8.2657547 10.812272 0.31721249 0 24
-8.3421383 10.912188 0.64024276 0 25
-8.4937992 11.110573 0.97850889 0 26
-8.7522688 11.448671 1.3459491 0 27
-9.1640234 11.98728 1.7643602 0 28
-9.6979885 12.685749 2.2449968 0 29
-10.286284 13.455287 2.7845657 0 30
-10.832377 14.169621 3.3604598 0 31
-9.3633499 11.545877 -1.0392303 0 20
-9.0066481 11.10603 -0.66568857 0 21
-8.8570137 10.921516 -0.32693651 0 22
-8.8128767 10.867092 0.00039943313 0 23
-8.8541098 10.917936 0.32763237 0 24
-8.9989643 11.096556 0.6659382 0 25
-9.2348366 11.387408 1.025808 0 26
-9.5961351 11.832922 1.4229133 0 27
-10.087634 12.438986 1.8726839 0 28
-10.6469 13.128613 2.3764646 0 29
-11.207848 13.820313 2.9254675 0 30
-11.727472 14.461058 3.5079503 0 31
-9.9882154 11.618597 -1.0711353 0 20
-9.5644836 11.125699 -0.68303871 0 21
-9.4194031 10.956936 -0.33595052 0 22
-9.4165993 10.953674 0.00041237878 0 23
-9.5251408 11.079934 0.34055647 0 24
-9.7539597 11.346104 0.69742608 0 25
-10.101129 11.74994 1.084133 0 26
-10.542984 12.26392 1.5105027 0 27
-11.073558 12.881101 1.9862696 0 28
-11.614506 13.510346 2.5048676 0 29
-12.127817 14.107446 3.0586619 0 30
-12.63271 14.694753 3.6510801 0 31
-10.155521 11.149565 -0.70210749 0 21
-10.038499 11.021088 -0.3466078 0 22
-10.086014 11.073255 0.00042760171 0 23
-10.276711 11.282616 0.35570458 0 24
-10.590015 11.626589 0.73304635 0 25
-11.017699 12.096135 1.1447779 0 26
-11.495209 12.620384 1.5943822 0 27
-12.014586 13.190598 2.0863032 0 28
-12.511694 13.736365 2.6122682 0 29
-13.021559 14.296136 3.179285 0 30
-13.533 14.857637 3.7864876 0 31
-10.779479 11.173208 -0.72277921 0 21
-10.682512 11.0727 -0.35772514 0 22
-10.79935 11.193805 0.00044404189 0 23
-11.062655 11.466728 0.37136522 0 24
-11.450887 11.86914 0.76874173 0 25
-11.915429 12.35065 1.2007331 0 26
-12.409241 12.862498 1.6692725 0 27
-12.913575 13.385254 2.1748114 0 28
-13.414327 13.904296 2.7162955 0 29
-13.931149 14.439997 3.29883 0 30
-14.4492 14.976968 3.9209628 0 31
-11.438206 11.194736 -0.74509948 0 21
-11.37747 11.135294 -0.37014359 0 22
-11.568792 11.322543 0.00046212861 0 23
-11.907293 11.653839 0.38833216 0 24
-12.33338 12.070856 0.80439973 0 25
-12.797478 12.525075 1.2528805 0 26
-13.289297 13.006427 1.7367309 0 27
-13.801254 13.507485 2.2580945 0 28
-14.30945 14.004865 2.8150074 0 29
-14.832838 14.517112 3.4122882 0 30
-15.424289 15.095973 4.0663295 0 31
-12.179996 11.255069 -0.77206212 0 21
-12.132287 11.210982 -0.38407496 0 22
-12.374659 11.434949 0.00048101298 0 23
-12.770408 11.800646 0.40526941 0 24
-13.226162 12.22179 0.83940667 0 25
-13.69806 12.657853 1.3049476 0 26
-14.191174 13.113522 1.8046691 0 27
-14.716732 13.599169 2.3430617 0 28
-15.231132 14.074506 2.9156642 0 29
-15.79142 14.592247 3.5350161 0 30
-16.586582 15.327025 4.2550344 0 31
-12.99041 11.330663 -0.80249023 0 21
-12.959882 11.304035 -0.39983991 0 22
-13.231672 11.541101 0.00050124509 0 23
-13.668842 11.922414 0.42274901 0 24
-14.122946 12.318498 0.87352568 0 25
-14.611206 12.744374 1.3565378 0 26
-15.122613 13.190441 1.8742087 0 27
-15.654152 13.654066 2.4289227 0 28
-16.200459 14.130572 3.0223479 0 29
-16.800007 14.653519 3.6651475 0 30
-13.893666 11.43359 -0.83767456 0 21
-13.835846 11.386007 -0.4166126 0 22
-14.164267 11.656276 0.00052368606 0 23
-14.587399 12.004486 0.44032189 0 24
-15.064129 12.396805 0.90936023 0 25
-15.570228 12.813292 1.4108549 0 26
-16.10265 13.25144 1.9477354 0 27
-16.642675 13.695847 2.5202801 0 28
-17.19503 14.150399 3.1308458 0 29
-17.898491 14.729301 3.8110092 0 30
-14.894165 11.556571 -0.87763917 0 21
-14.799171 11.482864 -0.43551734 0 22
-15.13176 11.740924 0.0005467739 0 23
-15.580246 12.08891 0.45962971 0 24
-16.082739 12.478801 0.94884074 0 25
-16.604431 12.883588 1.4704584 0 26
-17.13022 13.291555 2.0250556 0 27
-17.682077 13.719748 2.6169798 0 28
-18.294632 14.195037 3.2555456 0 29
-16.002165 11.696597 -0.92276871 0 21
-15.845692 11.582226 -0.45634526 0 22
-16.193821 11.836687 0.00057264039 0 23
-16.644499 12.166103 0.48052812 0 24
-17.154282 12.538723 0.99042165 0 25
-17.667332 12.913733 1.531137 0 26
-18.213972 13.313292 2.1071379 0 27
-18.803486 13.74419 2.7234521 0 28
-19.481619 14.239864 3.392653 0 29
-17.190441 11.823797 -0.97132409 0 21
-16.973145 11.674337 -0.47896925 0 22
-17.310501 11.906375 0.00059979828 0 23
-17.802528 12.244797 0.50360817 0 24
-18.29261 12.581882 1.0348711 0 25
-18.847849 12.963781 1.6005448 0 26
-19.406656 13.348136 2.1998951 0 27
-20.045858 13.787787 2.844913 0 28
-20.882887 14.363506 3.5634274 0 29
-18.518343 11.969436 -1.0265237 0 21
-18.207642 11.768613 -0.50406754 0 22
-18.553417 11.992106 0.00063068024 0 23
-19.026775 12.298065 0.52803904 0 24
-19.556482 12.640444 1.0854031 0 25
-20.119167 13.004139 1.6761228 0 26
-20.713255 13.38813 2.3035064 0 27
-21.414175 13.841174 2.9815044 0 28
-20.040602 12.152803 -1.0911247 0 21
-19.561218 11.8621 -0.53189719 0 22
-19.897423 12.065977 0.0006643224 0 23
-20.38587 12.362177 0.55568266 0 24
-20.935125 12.695251 1.1412286 0 25
-21.514847 13.046799 1.7604789 0 26
-22.16086 13.438546 2.4206076 0 27
-23.008312 13.952449 3.1464121 0 28
-21.056057 11.956241 -0.5629822 0 22
-21.401428 12.152352 0.00070260401 0 23
-21.897697 12.434149 0.58692396 0 24
-22.464783 12.756155 1.2041625 0 25
-23.088879 13.110536 1.857724 0 26
-23.824385 13.528177 2.5588527 0 27
-22.72327 12.054381 -0.59806329 0 22
-23.056952 12.231395 0.00074512389 0 23
-23.588387 12.513313 0.62235802 0 24
-24.17606 12.825066 1.2756369 0 25
-24.863338 13.189658 1.9692302 0 26
-25.731802 13.650366 2.7205236 0 27
-24.565557 12.141855 -0.63711792 0 22
-24.913408 12.313785 0.00079337152 0 23
-25.474682 12.591202 0.66231984 0 24
-26.114861 12.907619 1.3578324 0 25
-26.855566 13.273723 2.0959854 0 26
-26.644646 12.231324 -0.68165553 0 22
-26.977484 12.384114 0.00084743567 0 23
-27.587877 12.664318 0.7075206 0 24
-28.27857 12.981383 1.4503664 0 25
-29.069113 13.344284 2.2379353 0 26
-28.999239 12.317709 -0.73254842 0 22
-29.32283 12.455158 0.00090950669 0 23
-29.954765 12.723578 0.7585451 0 24
-30.645464 13.016959 1.5519624 0 25
-31.730494 12.41588 -0.79221553 0 22
-31.92749 12.492964 0.00097877206 0 23
-32.572041 12.745172 0.81522459 0 24
-33.227329 13.00158 1.6631339 0 25
-35.406204 12.6955 -0.87453055 0 22
-34.859585 12.4995 0.0010572267 0 23
-35.467632 12.717526 0.87820035 0 24
-36.14476 12.960321 1.7898072 0 25
-38.195141 12.471058 0.0011470612 0 23
-38.71299 12.640141 0.94918466 0 24
-42.063576 12.410699 0.001252025 0 23
-42.400307 12.510049 1.0303655 0 24
-46.662262 12.324049 0.0013778106 0 23
