# .PCD v0.7 - Point Cloud Data file format
VERSION 0.7
FIELDS x y z intensity ring
SIZE 4 4 4 4 2
TYPE F F F F U
COUNT 1 1 1 1 1
WIDTH 1004
HEIGHT 1
VIEWPOINT 0 0 0 1 0 0 0
POINTS 1004
DATA ascii
6.8621631 11.135167 -7.7569499 0 0
7.0721283 11.475876 -7.5759025 0 1
6.3301249 10.964075 -7.5081229 0 0
6.3740163 11.040098 -7.1645117 0 1
6.4905219 11.24189 -6.9029684 0 2
5.8904457 10.914077 -7.3550959 0 0
5.8833919 10.901009 -6.9618115 0 1
5.9210472 10.970777 -6.629425 0 2
5.9909987 11.100387 -6.3356762 0 3
6.1380167 11.372788 -6.1187634 0 4
5.48351 10.896878 -7.2344761 0 0
5.4519525 10.834167 -6.8163958 0 1
5.4423285 10.815042 -6.4382877 0 2
5.4666452 10.863365 -6.1083355 0 3
5.5188384 10.967084 -5.8128824 0 4
5.609436 11.14712 -5.5565667 0 5
5.7553611 11.437103 -5.3476305 0 6
5.1150527 10.935091 -7.1594415 0 0
5.0518627 10.800001 -6.7009263 0 1
5.0267949 10.746411 -6.3089538 0 2
5.0193877 10.730576 -5.9502239 0 3
5.0311399 10.7557 -5.6219997 0 4
5.0627956 10.823375 -5.3205714 0 5
5.1150641 10.935115 -5.0422044 0 6
5.1957631 11.107635 -4.7897186 0 7
5.3545294 11.447049 -4.6000633 0 8
4.7620935 10.991539 -7.1039977 0 0
4.686883 10.817944 -6.6258759 0 1
4.6345148 10.69707 -6.1993523 0 2
4.6118221 10.644692 -5.8268118 0 3
4.6048183 10.628527 -5.4841938 0 4
4.6133952 10.648323 -5.1673088 0 5
4.633462 10.69464 -4.8680034 0 6
4.6648808 10.767159 -4.5832877 0 7
4.7101698 10.871692 -4.3127565 0 8
4.7921128 11.060827 -4.0726633 0 9
4.9426675 11.408327 -3.8806653 0 10
4.4302459 11.087134 -7.0806952 0 0
4.339016 10.858822 -6.5719399 0 1
4.2787228 10.707932 -6.1319604 0 2
4.2396331 10.610106 -5.7389159 0 3
4.2260275 10.576056 -5.3923211 0 4
4.216754 10.552849 -5.0601707 0 5
4.2245793 10.572433 -4.7552338 0 6
4.2286406 10.582597 -4.4512348 0 7
4.2541847 10.646523 -4.1732836 0 8
4.2873468 10.729515 -3.9037614 0 9
4.3381357 10.856619 -3.6491444 0 10
4.396822 11.003488 -3.3979778 0 11
4.5303645 11.33769 -3.1956291 0 12
4.0747938 10.197579 -2.6027803 0 13
4.1027174 10.267461 -2.3502576 0 14
4.1664395 10.426932 -2.1149068 0 15
4.2589936 10.658558 -1.8864205 0 16
4.4121332 11.041805 -1.6710534 0 17
4.1113625 11.212357 -7.0823989 0 0
4.0079079 10.93022 -6.5428452 0 1
3.943794 10.755371 -6.0918055 0 2
3.897609 10.629416 -5.6865182 0 3
3.8723819 10.560618 -5.3255963 0 4
3.8552239 10.513826 -4.9863544 0 5
3.8446381 10.484957 -4.6643429 0 6
3.8526511 10.506809 -4.3710523 0 7
3.861284 10.530353 -4.0826287 0 8
3.8747005 10.566941 -3.8025889 0 9
3.9038565 10.646455 -3.5393896 0 10
3.849139 10.497231 -3.2062092 0 11
3.6417229 9.9315739 -2.7687056 0 12
3.6640007 9.9923286 -2.5225167 0 13
3.6867707 10.054426 -2.2763371 0 14
3.7170544 10.137015 -2.0336287 0 15
3.7604899 10.255471 -1.7952402 0 16
3.8154809 10.40544 -1.5575342 0 17
3.8946424 10.621326 -1.3221713 0 18
4.02003 10.96328 -1.0899425 0 19
3.816097 11.409604 -7.1348782 0 0
3.6967494 11.052772 -6.5500026 0 1
3.6240091 10.835288 -6.0756621 0 2
3.5726779 10.681814 -5.6573696 0 3
3.5410492 10.58725 -5.285603 0 4
3.519742 10.523543 -4.9410229 0 5
3.5147655 10.508665 -4.6281123 0 6
3.5038347 10.475984 -4.3146191 0 7
3.5048406 10.478991 -4.0220637 0 8
3.5144291 10.507659 -3.7434201 0 9
3.4619758 10.350831 -3.406678 0 10
3.2807486 9.8089867 -2.9660177 0 11
3.2853179 9.822648 -2.7109392 0 12
3.2974582 9.8589449 -2.4639411 0 13
3.3134546 9.9067726 -2.2204654 0 14
3.3325622 9.9639025 -1.9788986 0 15
3.3572724 10.037782 -1.7395513 0 16
3.3840373 10.117805 -1.4993256 0 17
3.4232078 10.23492 -1.2613219 0 18
3.4696181 10.37368 -1.0210063 0 19
3.5313425 10.558228 -0.77831066 0 20
3.6390967 10.880398 -0.53411412 0 21
3.3825791 10.113445 0.00030444365 0 23
3.2666836 9.7669334 0.24003884 0 24
3.2171526 9.6188431 0.47276533 0 25
3.2001827 9.5681057 0.70590168 0 26
3.2238009 9.6387205 0.94925493 0 27
3.3029561 9.8753843 1.2176166 0 28
3.5329876 11.665477 -7.2285066 0 0
3.4179754 11.285721 -6.6271939 0 1
3.3340454 11.008595 -6.1166711 0 2
3.273181 10.807629 -5.6719189 0 3
3.2289066 10.66144 -5.274209 0 4
3.2035735 10.577793 -4.9213018 0 5
3.1922941 10.54055 -4.5999141 0 6
3.1852558 10.517311 -4.2922249 0 7
3.1833899 10.51115 -3.9976964 0 8
3.1275442 10.326755 -3.6454952 0 9
2.9597909 9.7728539 -3.1871858 0 10
2.9529965 9.7504196 -2.9214804 0 11
2.957948 9.7667694 -2.6709898 0 12
2.9681454 9.8004398 -2.427032 0 13
2.9719405 9.8129711 -2.1794274 0 14
2.9785206 9.8346977 -1.9354644 0 15
2.9961288 9.8928375 -1.698832 0 16
3.0138087 9.9512148 -1.4612207 0 17
3.0311613 10.008511 -1.2221965 0 18
3.0583551 10.098301 -0.98485881 0 19
2.9401941 9.708149 -0.70913422 0 20
2.8009357 9.2483339 -0.44986573 0 21
2.7110159 8.9514313 -0.21746032 0 22
2.6523697 8.7577887 0.00026123557 0 23
2.6081593 8.6118116 0.20972386 0 24
2.5930552 8.5619392 0.41698939 0 25
2.5852444 8.536149 0.62403697 0 26
2.5844977 8.5336838 0.83277965 0 27
2.5983946 8.5795698 1.0482192 0 28
2.6341429 8.6976061 1.2776719 0 29
2.6883938 8.8767357 1.5248873 0 30
2.7855129 9.1974106 1.8106147 0 31
3.2811894 12.072167 -7.4191089 0 0
3.1619792 11.633569 -6.7753811 0 1
3.0649433 11.276554 -6.2141256 0 2
2.9910667 11.004747 -5.7279611 0 3
2.947778 10.845479 -5.3212123 0 4
2.913631 10.719845 -4.9464521 0 5
2.8916974 10.639147 -4.6048303 0 6
2.8792367 10.593301 -4.2877502 0 7
2.8749001 10.577346 -3.9898512 0 8
2.6644027 9.8028831 -3.4321551 0 9
2.6546175 9.7668819 -3.1590922 0 10
2.6486449 9.7449064 -2.8958614 0 11
2.648489 9.7443333 -2.6429799 0 12
2.6467338 9.737875 -2.3917432 0 13
2.6553261 9.7694883 -2.1519597 0 14
2.6566422 9.7743301 -1.9077945 0 15
2.6624799 9.7958078 -1.6683618 0 16
2.671906 9.8304892 -1.4316447 0 17
2.6144085 9.6189442 -1.1649824 0 18
2.4690046 9.0839739 -0.87866217 0 19
2.3773448 8.7467384 -0.6336633 0 20
2.3133678 8.5113535 -0.41061842 0 21
2.2710521 8.3556652 -0.20132098 0 22
2.2389464 8.2375422 0.00024370023 0 23
2.2195721 8.1662598 0.19724089 0 24
2.2083495 8.1249695 0.39245963 0 25
2.2003682 8.0956049 0.58697289 0 26
2.1993835 8.0919819 0.78319311 0 27
2.202765 8.1044235 0.98203993 0 28
2.2210491 8.1716948 1.1905624 0 29
2.2404401 8.2430382 1.4044044 0 30
2.282886 8.3992043 1.6399063 0 31
3.0222383 12.529067 -7.6434522 0 0
2.915638 12.087142 -6.9879332 0 1
2.8142483 11.666819 -6.3820534 0 2
2.733639 11.332643 -5.8553867 0 3
2.674443 11.087238 -5.3999486 0 4
2.6339273 10.919275 -5.0015373 0 5
2.6075473 10.809914 -4.6444407 0 6
2.5918858 10.744987 -4.3172622 0 7
2.5261269 10.472375 -3.9212949 0 8
2.3740149 9.8417749 -3.4205101 0 9
2.3668365 9.8120174 -3.150424 0 10
2.3579807 9.7753038 -2.8835981 0 11
2.3509834 9.7462959 -2.6241319 0 12
2.3474069 9.7314692 -2.3726468 0 13
2.3432667 9.7143049 -2.1241169 0 14
2.3474822 9.731781 -1.885564 0 15
2.3464167 9.7273645 -1.6445591 0 16
2.2452784 9.3080826 -1.3456272 0 17
2.1231654 8.8018484 -1.0582061 0 18
2.0533495 8.5124168 -0.81734109 0 19
2.0022583 8.3006115 -0.5969348 0 20
1.9665191 8.1524506 -0.39042026 0 21
1.9359776 8.0258369 -0.19195643 0 22
1.9177095 7.9501047 0.00023347235 0 23
1.9020126 7.8850307 0.1890521 0 24
1.8931584 7.8483253 0.37631768 0 25
1.8870962 7.8231931 0.5630632 0 26
1.8874621 7.8247104 0.75177282 0 27
1.8917284 7.8423967 0.94332248 0 28
1.8993628 7.8740463 1.1387867 0 29
1.9133332 7.931962 1.3414975 0 30
1.9346997 8.0205393 1.5544932 0 31
2.7412479 12.988071 -7.8722377 0 0
2.6488743 12.550404 -7.2088423 0 1
2.5706756 12.179897 -6.6196394 0 2
2.5044124 11.865942 -6.09129 0 3
2.4404945 11.563098 -5.5952973 0 4
2.38028 11.2778 -5.1323562 0 5
2.3381517 11.078196 -4.7289305 0 6
2.3127468 10.957827 -4.374311 0 7
2.1062136 9.979269 -3.7124944 0 8
2.0901139 9.9029894 -3.4195302 0 9
2.0792651 9.8515873 -3.1426764 0 10
2.0685372 9.8007584 -2.8724127 0 11
2.0620844 9.7701845 -2.6135545 0 12
2.0561085 9.7418709 -2.3598249 0 13
2.0543227 9.7334099 -2.1145327 0 14
2.0528529 9.7264462 -1.8723447 0 15
1.9386657 9.1854258 -1.5428948 0 16
1.835368 8.6959991 -1.2490124 0 17
1.7705721 8.3889952 -1.0020491 0 18
1.7281371 8.1879377 -0.78110188 0 19
1.6979885 8.0450935 -0.57481831 0 20
1.6712047 7.9181914 -0.37674963 0 21
1.6489319 7.8126626 -0.18564963 0 22
1.6346501 7.7449956 0.00022597818 0 23
1.6232128 7.6908054 0.18320303 0 24
1.6147134 7.6505351 0.3644619 0 25
1.6130658 7.6427288 0.54651773 0 26
1.6101638 7.6289787 0.72822815 0 27
1.6123028 7.6391134 0.91292912 0 28
1.6207794 7.6792755 1.1034366 0 29
1.6270939 7.7091942 1.2953912 0 30
1.6430095 7.7846022 1.4990095 0 31
2.4189177 13.344811 -8.0430756 0 0
2.3463488 12.94446 -7.3934636 0 1
2.2891386 12.628839 -6.82512 0 2
2.2452118 12.386502 -6.3228364 0 3
2.2299094 12.302081 -5.9194822 0 4
2.2550697 12.440886 -5.62989 0 5
2.1165662 11.676783 -4.9564791 0 6
1.9987298 11.026697 -4.3771038 0 7
1.8321244 10.107559 -3.739121 0 8
1.816119 10.019259 -3.4402654 0 9
1.8018366 9.9404669 -3.1532354 0 10
1.7886599 9.8677721 -2.8758249 0 11
1.7831514 9.8373823 -2.6167636 0 12
1.7718861 9.7752333 -2.3546193 0 13
1.765848 9.7419224 -2.1045063 0 14
1.6718397 9.2232924 -1.7655246 0 15
1.5782905 8.7071953 -1.4543585 0 16
1.5172031 8.3701849 -1.1954694 0 17
1.4772435 8.1497345 -0.96800745 0 18
1.4475532 7.9859371 -0.7575568 0 19
1.4219027 7.8444271 -0.55733573 0 20
1.404645 7.7492185 -0.36664093 0 21
1.390713 7.6723576 -0.18129259 0 22
1.377763 7.600915 0.00022052985 0 23
1.3664293 7.5383883 0.17856465 0 24
1.3634837 7.5221376 0.35633442 0 25
1.3606191 7.5063343 0.53375244 0 26
1.3575852 7.4895968 0.71091169 0 27
1.3560488 7.4811211 0.88903111 0 28
1.3632568 7.5208864 1.0746136 0 29
1.3722346 7.5704155 1.2649339 0 30
1.3835199 7.6326747 1.461507 0 31
2.067384 13.621367 -8.1706362 0 0
2.0066979 13.221525 -7.5157275 0 1
1.9621279 12.927867 -6.9534321 0 2
1.9335144 12.739341 -6.4719577 0 3
1.9392347 12.77703 -6.1187191 0 4
1.5904676 10.47911 -4.1399131 0 7
1.5603653 10.280774 -3.7850752 0 8
1.5423168 10.161859 -3.4726014 0 9
1.5274959 10.064208 -3.177274 0 10
1.5141953 9.9765749 -2.8936782 0 11
1.5051388 9.9169035 -2.6253457 0 12
1.4967853 9.861865 -2.3641667 0 13
1.4333974 9.4442215 -2.0304728 0 14
1.3363626 8.8048887 -1.6774019 0 15
1.280126 8.4343624 -1.402074 0 16
1.238642 8.1610365 -1.1600432 0 17
1.2122549 7.9871802 -0.9441787 0 18
1.189412 7.8366761 -0.73985511 0 19
1.171345 7.7176375 -0.54571456 0 20
1.1558355 7.6154504 -0.35859489 0 21
1.1470083 7.5572906 -0.17772266 0 22
1.1371671 7.4924498 0.00021634696 0 23
1.1305159 7.448627 0.17559765 0 24
1.1259151 7.4183135 0.34974149 0 25
1.1230799 7.3996339 0.52365786 0 26
1.1222745 7.3943276 0.69852406 0 27
1.1241319 7.4065647 0.87597668 0 28
1.1263251 7.4210153 1.0552906 0 29
1.1287398 7.4369249 1.2367074 0 30
1.1402533 7.512784 1.4316949 0 31
1.6984499 13.860018 -8.2811413 0 0
1.6499108 13.463921 -7.6234617 0 1
1.6117623 13.152614 -7.046535 0 2
1.5934908 13.003511 -6.5802226 0 3
1.6332872 13.328265 -6.3576331 0 4
1.3244673 10.808173 -4.2531471 0 7
1.2915275 10.539371 -3.8650455 0 8
1.2677373 10.345234 -3.5213835 0 9
1.2534187 10.228389 -3.2164257 0 10
1.2392342 10.112638 -2.9216251 0 11
1.2282386 10.02291 -2.6429896 0 12
1.2126313 9.8955479 -2.362926 0 13
1.1091684 9.0512505 -1.9383438 0 14
1.0500706 8.5689888 -1.6260507 0 15
1.0122215 8.2601242 -1.3677177 0 16
0.9849329 8.0374393 -1.1379882 0 17
0.96445447 7.8703275 -0.92671186 0 18
0.94801021 7.736136 -0.72749513 0 19
0.93256563 7.6101017 -0.53599757 0 20
0.92344767 7.5356956 -0.35344601 0 21
0.91488063 7.4657855 -0.17488131 0 22
0.90693903 7.4009786 0.00021286651 0 23
0.90271157 7.3664813 0.17297916 0 24
0.90010089 7.3451767 0.34493354 0 25
0.89955717 7.3407397 0.51745009 0 26
0.8986215 7.3331046 0.69002014 0 27
0.89770317 7.3256106 0.86299998 0 28
0.89997011 7.3441095 1.0402534 0 29
0.90356565 7.3734508 1.2213373 0 30
0.90735459 7.4043703 1.4054937 0 31
1.3249665 14.168333 -8.4391623 0 0
1.2807602 13.695619 -7.7306581 0 1
1.2537285 13.40656 -7.1603632 0 2
1.2502388 13.369243 -6.7443619 0 3
1.8211191 19.473866 -9.2603655 0 4
1.8194659 19.456188 -8.7011604 0 5
1.820702 19.469406 -8.1672077 0 6
1.8183502 19.444258 -7.6278753 0 7
1.0266565 10.978398 -4.0135903 0 8
0.998344 10.675643 -3.6226068 0 9
0.97910297 10.469892 -3.2821817 0 10
0.96364886 10.304636 -2.9678833 0 11
0.95199126 10.179977 -2.6761014 0 12
0.88713497 9.4864454 -2.2582288 0 13
0.82605457 8.833292 -1.8858144 0 14
0.78777957 8.4240036 -1.5935922 0 15
0.76105189 8.138196 -1.3433592 0 16
0.74371171 7.9527707 -1.1225164 0 17
0.72728747 7.7771406 -0.91290593 0 18
0.71662211 7.6630921 -0.71839648 0 19
0.70684636 7.5585566 -0.53071988 0 20
0.6998263 7.4834886 -0.3499113 0 21
0.69307232 7.4112663 -0.17306708 0 22
0.68774396 7.3542876 0.0002108691 0 23
0.68325859 7.3063245 0.17103569 0 24
0.68315452 7.3052115 0.3419953 0 25
0.68110079 7.2832499 0.51180911 0 26
0.68223625 7.295392 0.68434745 0 27
0.68163526 7.2889657 0.85602605 0 28
0.68328094 7.3065629 1.0317328 0 29
0.68298149 7.3033609 1.2059845 0 30
0.69007957 7.3792634 1.396394 0 31
1.2099558 18.717112 -11.123313 0 0
0.91236758 14.113644 -7.948566 0 1
0.8929556 13.813355 -7.3609128 0 2
1.2093219 18.707304 -9.4158621 0 3
1.2096052 18.711689 -8.8777666 0 4
1.209129 18.704319 -8.3459568 0 5
1.209076 18.703501 -7.8281407 0 6
1.2093625 18.707933 -7.3223896 0 7
1.2088137 18.699442 -6.8208342 0 8
0.73236245 11.329099 -3.8356354 0 9
0.70256084 10.868091 -3.399292 0 10
0.68452054 10.589021 -3.0428793 0 11
0.67201567 10.395579 -2.7265866 0 12
0.59957278 9.2749424 -2.2028778 0 13
0.56145453 8.6852818 -1.8500142 0 14
0.53744501 8.3138723 -1.5691946 0 15
0.52148855 8.0670376 -1.3285959 0 16
0.50984138 7.8868647 -1.1106914 0 17
0.49923101 7.7227302 -0.9044649 0 18
0.49208745 7.6122251 -0.71201074 0 19
0.4858374 7.5155411 -0.5265038 0 20
0.47979859 7.4221253 -0.34625569 0 21
0.47713852 7.3809762 -0.17196919 0 22
0.47395277 7.3316946 0.00020974493 0 23
0.47226962 7.3056574 0.17063257 0 24
0.47081092 7.2830925 0.34018716 0 25
0.46857676 7.2485318 0.50821519 0 26
0.46935475 7.2605667 0.67953736 0 27
0.46885005 7.252759 0.84984386 0 28
0.47070229 7.2814121 1.0258516 0 29
0.47167349 7.2964358 1.2021109 0 30
0.47373986 7.3284011 1.3836268 0 31
0.66056943 18.410719 -10.925464 0 0
0.6608032 18.417234 -10.357331 0 1
0.6603362 18.404217 -9.7931786 0 2
0.66040301 18.40608 -9.2509003 0 3
0.66070312 18.414446 -8.7241516 0 4
0.660712 18.414692 -8.2048845 0 5
0.6606701 18.413525 -7.6956701 0 6
0.66042161 18.406599 -7.1940656 0 7
0.66055614 18.410349 -6.7057085 0 8
0.66099846 18.422676 -6.2282848 0 9
0.66063637 18.412584 -5.750741 0 10
0.40078521 11.170278 -3.2052855 0 11
0.36430377 10.153503 -2.6592569 0 12
0.32853109 9.1564837 -2.1716094 0 13
0.30892262 8.6099768 -1.8313314 0 14
0.29578617 8.2438517 -1.5537367 0 15
0.28811058 8.0299253 -1.3205782 0 16
0.28149551 7.8455563 -1.1032821 0 17
0.27642488 7.7042327 -0.90099853 0 18
0.27184969 7.5767174 -0.70766848 0 19
0.26849577 7.4832406 -0.52348572 0 20
0.26607978 7.415905 -0.34546706 0 21
0.26362547 7.3475008 -0.1709426 0 22
0.26182222 7.2972426 0.00020845856 0 23
0.26091248 7.2718868 0.1695991 0 24
0.26037005 7.2567687 0.33846924 0 25
0.25967109 7.2372885 0.50669575 0 26
0.25960359 7.2354069 0.67620695 0 27
0.25953653 7.2335386 0.84637046 0 28
0.26042366 7.2582631 1.0211169 0 29
0.26124963 7.2812834 1.1978861 0 30
0.26217571 7.3070946 1.3776163 0 31
0.13114803 18.280943 -10.841755 0 0
0.13122213 18.291271 -10.280143 0 1
0.13120897 18.289436 -9.7260942 0 2
0.13126574 18.297352 -9.1905766 0 3
0.13119861 18.287994 -8.6588945 0 4
0.13120534 18.288931 -8.1438198 0 5
0.1313443 18.308302 -7.6469703 0 6
0.13117909 18.285273 -7.1422343 0 7
0.13128217 18.299641 -6.6612701 0 8
0.13126311 18.296984 -6.1819725 0 9
0.13129567 18.301521 -5.7125244 0 10
0.12745523 17.766199 -5.0948229 0 11
0.072343729 10.084114 -2.6394529 0 12
0.065437123 9.1213903 -2.1619511 0 13
0.06174089 8.6061659 -1.8293909 0 14
0.059211463 8.2535849 -1.5546107 0 15
0.057566084 8.0242329 -1.3188275 0 16
0.056116257 7.8221388 -1.0993099 0 17
0.055179946 7.6916251 -0.89896876 0 18
0.054417379 7.5853291 -0.70803547 0 19
0.053695373 7.4846878 -0.52326369 0 20
0.053176705 7.4123898 -0.34509012 0 21
0.052797418 7.3595204 -0.17111655 0 22
0.052433502 7.3087935 0.00020865964 0 23
0.05216575 7.271471 0.1694847 0 24
0.052107349 7.2633305 0.33856618 0 25
0.052041143 7.2541018 0.50755936 0 26
0.051829081 7.2245421 0.67477471 0 27
0.051888753 7.2328601 0.84576863 0 28
0.052057587 7.2563939 1.0202236 0 29
0.052165639 7.2714558 1.1955308 0 30
0.052440394 7.3097544 1.377267 0 31
-0.39374614 18.29698 -10.853498 0 0
-0.39369994 18.294834 -10.284261 0 1
-0.39397568 18.307646 -9.7377815 0 2
-0.39400235 18.308886 -9.1982622 0 3
-0.39413697 18.315142 -8.6735325 0 4
-0.39431825 18.323565 -8.1609211 0 5
-0.39433584 18.324383 -7.655262 0 6
-0.39429891 18.322666 -7.1583128 0 7
-0.3945384 18.333796 -6.675076 0 8
-0.39440292 18.327499 -6.1935573 0 9
-0.39440802 18.327736 -5.7218843 0 10
-0.38288572 17.792307 -5.1033602 0 11
-0.21841748 10.149636 -2.6571498 0 12
-0.19731607 9.169076 -2.1737006 0 13
-0.18568543 8.6286116 -1.8345395 0 14
-0.1782925 8.2850695 -1.5608623 0 15
-0.17309041 8.043334 -1.3222389 0 16
-0.16884345 7.8459821 -1.1028877 0 17
-0.16597658 7.7127624 -0.90162468 0 18
-0.16345522 7.5955968 -0.70913976 0 19
-0.16161233 7.5099597 -0.52513856 0 20
-0.15965924 7.4192014 -0.34547833 0 21
-0.15832299 7.3571072 -0.17109562 0 22
-0.15745966 7.3169894 0.0002089366 0 23
-0.15666641 7.2801275 0.16972139 0 24
-0.15651979 7.273314 0.33910128 0 25
-0.15597722 7.2481017 0.50724393 0 26
-0.15571582 7.2359552 0.67597973 0 27
-0.15566507 7.2335968 0.8460288 0 28
-0.15656099 7.275229 1.0230823 0 29
-0.15676671 7.2847886 1.1979693 0 30
-0.1574547 7.3167582 1.3788704 0 31
-0.92756277 18.459343 -10.961087 0 0
-0.92802864 18.468613 -10.392642 0 1
-0.92867428 18.481462 -9.8403578 0 2
-0.92830932 18.474199 -9.2908735 0 3
-0.92863286 18.480639 -8.7609205 0 4
-0.92902476 18.488438 -8.2428322 0 5
-0.929914 18.506134 -7.7391534 0 6
-0.92959452 18.499775 -7.2349501 0 7
-0.92938268 18.495562 -6.7409077 0 8
-0.92985702 18.504999 -6.2599816 0 9
-0.93096215 18.526993 -5.7900486 0 10
-0.90049767 17.920721 -5.1454873 0 11
-0.52584076 10.464709 -2.7424567 0 12
-0.46813881 9.3163881 -2.2108986 0 13
-0.43808794 8.7183485 -1.8555276 0 14
-0.4184303 8.3271437 -1.5704044 0 15
-0.40651655 8.0900488 -1.3312881 0 16
-0.39757487 7.9121013 -1.1133274 0 17
-0.38941389 7.7496905 -0.90687466 0 18
-0.38319325 7.6258941 -0.71270162 0 19
-0.37772942 7.5171585 -0.52618331 0 20
-0.37417576 7.4464378 -0.34710371 0 21
-0.37128687 7.3889461 -0.17201304 0 22
-0.3693569 7.3505383 0.00021011077 0 23
-0.36745495 7.3126874 0.17065604 0 24
-0.36618638 7.2874417 0.34010988 0 25
-0.3661252 7.2862244 0.51043701 0 26
-0.36547741 7.2733331 0.68017137 0 27
-0.36517957 7.2674055 0.85085845 0 28
-0.3658599 7.2809443 1.0249405 0 29
-0.36746565 7.3129001 1.2038308 0 30
-0.36904982 7.3444266 1.3855101 0 31
-1.4895416 18.84037 -11.208108 0 0
-1.4888903 18.832132 -10.616874 0 1
-1.4905571 18.853214 -10.05693 0 2
-1.4920052 18.871531 -9.5083141 0 3
-1.4920679 18.872324 -8.963212 0 4
-1.4930452 18.884686 -8.4351244 0 5
-1.4929308 18.883238 -7.9115157 0 6
-1.493615 18.891891 -7.4020157 0 7
-1.4939739 18.896431 -6.8997951 0 8
-1.495361 18.913975 -6.4102111 0 9
-1.4958857 18.920612 -5.9240398 0 10
-1.4380844 18.189516 -5.2323604 0 11
-0.91342384 11.553382 -3.0333829 0 12
-0.75596339 9.5617533 -2.2733395 0 13
-0.70117265 8.8687363 -1.8910389 0 14
-0.66793674 8.4483538 -1.5962212 0 15
-0.64566725 8.1666803 -1.3463932 0 16
-0.63100427 7.9812169 -1.1251377 0 17
-0.61660969 7.7991476 -0.91435647 0 18
-0.60645795 7.6707435 -0.71822405 0 19
-0.59895438 7.5758352 -0.53127497 0 20
-0.59266144 7.4962397 -0.35007384 0 21
-0.58661836 7.4198041 -0.17305209 0 22
-0.58388937 7.3852863 0.00021149592 0 23
-0.58072484 7.3452601 0.17173442 0 24
-0.58028311 7.339673 0.34318349 0 25
-0.57880414 7.3209662 0.51382303 0 26
-0.57664782 7.2936921 0.6833415 0 27
-0.57782066 7.308527 0.85726142 0 28
-0.57883948 7.3214135 1.0325507 0 29
-0.58214009 7.3631606 1.2143548 0 30
-0.58316565 7.3761325 1.3940746 0 31
-2.0215187 18.717001 -5.398561 0 11
-2.0189362 18.693089 -4.9211254 0 12
-1.0794935 9.9949026 -2.3827066 0 13
-0.98833984 9.1509209 -1.9564501 0 14
-0.93099743 8.6199942 -1.6330265 0 15
-0.89703184 8.3055115 -1.3729604 0 16
-0.87258309 8.0791426 -1.1420026 0 17
-0.85333306 7.9009094 -0.92877549 0 18
-0.83911932 7.7693057 -0.72940707 0 19
-0.82802635 7.6665974 -0.53908437 0 20
-0.8183437 7.5769467 -0.35479352 0 21
-0.80960929 7.4960761 -0.1753007 0 22
-0.8036291 7.4407063 0.0002136555 0 23
-0.7992692 7.4003386 0.17348702 0 24
-0.79669565 7.3765101 0.34583256 0 25
-0.79510361 7.3617697 0.51807499 0 26
-0.79332399 7.3452921 0.69002485 0 27
-0.79442841 7.3555179 0.86509132 0 28
-0.79560637 7.3664246 1.0416899 0 29
-0.7996071 7.4034672 1.2242827 0 30
-0.80479896 7.4515376 1.4121097 0 31
-1.5382074 11.21734 -2.6835449 0 13
-1.312389 9.5705652 -2.0533762 0 14
-1.2225567 8.9154654 -1.6949513 0 15
-1.1681774 8.5189056 -1.4131961 0 16
-1.130107 8.2412777 -1.1690238 0 17
-1.1028515 8.0425177 -0.94875199 0 18
-1.0814483 7.886436 -0.74301142 0 19
-1.06791 7.7877073 -0.54952908 0 20
-1.0507076 7.6622596 -0.36005205 0 21
-1.0426906 7.603796 -0.17844611 0 22
-1.0352679 7.5496669 0.0002175478 0 23
-1.0284415 7.4998856 0.17643999 0 24
-1.0233926 7.4630651 0.35112289 0 25
-1.0217761 7.4512773 0.52622092 0 26
-1.0201263 7.4392467 0.70131248 0 27
-1.021345 7.4481335 0.87906927 0 28
-1.0255911 7.4790983 1.0613483 0 29
-1.0278834 7.4958148 1.2439198 0 30
-1.0348341 7.5465035 1.4351434 0 31
-1.7313331 10.399585 -2.2409809 0 14
-1.5596502 9.3683386 -1.7888215 0 15
-1.4677151 8.8161125 -1.4688821 0 16
-1.407861 8.4565868 -1.2048005 0 17
-1.3716143 8.2388649 -0.97615606 0 18
-1.3419394 8.0606165 -0.7627359 0 19
-1.3164397 7.9074483 -0.5604136 0 20
-1.3023393 7.822751 -0.36919785 0 21
-1.2877588 7.7351704 -0.18232143 0 22
-1.2751938 7.6596966 0.00022168161 0 23
-1.2669928 7.6104355 0.17982213 0 24
-1.2613189 7.576354 0.35800853 0 25
-1.259833 7.5674286 0.53675598 0 26
-1.256646 7.5482855 0.7146973 0 27
-1.258253 7.5579381 0.89592201 0 28
-1.2638841 7.5917621 1.0820379 0 29
-1.2671705 7.6115031 1.2686306 0 30
-1.2785006 7.6795592 1.4668207 0 31
-2.0067778 10.232597 -1.964034 0 15
-1.833715 9.3501472 -1.5659826 0 16
-1.7358819 8.8512945 -1.2676095 0 17
-1.6712579 8.5217752 -1.0149405 0 18
-1.6273263 8.2977667 -0.78927046 0 19
-1.5968937 8.1425905 -0.5800876 0 20
-1.5679682 7.9950995 -0.37929943 0 21
-1.5504791 7.9059215 -0.18731777 0 22
-1.5328854 7.8162112 0.00022739089 0 23
-1.5262493 7.7823734 0.18484357 0 24
-1.5165138 7.7327323 0.36730325 0 25
-1.5149019 7.7245126 0.55075485 0 26
-1.5148437 7.7242165 0.73516858 0 27
-1.5153662 7.7268806 0.92072463 0 28
-1.5201893 7.7514734 1.1105621 0 29
-1.5287828 7.7952919 1.306038 0 30
-1.5419393 7.8623767 1.50957 0 31
-2.3603499 10.440015 -1.7591367 0 16
-2.1484792 9.5028944 -1.3691926 0 17
-2.0329285 8.9918051 -1.0774257 0 18
-1.9520156 8.6339207 -0.82623315 0 19
-1.9081248 8.4397879 -0.60491234 0 20
-1.8655516 8.251483 -0.39384043 0 21
-1.8389829 8.1339684 -0.19389157 0 22
-1.8225502 8.0612841 0.00023594512 0 23
-1.8066056 7.9907603 0.19094591 0 24
-1.7956666 7.9423761 0.37955278 0 25
-1.7918037 7.9252901 0.56850249 0 26
-1.791535 7.9241023 0.7587741 0 27
-1.7914668 7.9238005 0.94992435 0 28
-1.8021544 7.9710727 1.1489611 0 29
-1.815556 8.0303488 1.353592 0 30
-1.8384268 8.1315079 1.570726 0 31
-2.7405126 10.686388 -1.5504056 0 17
-2.5412714 9.9094639 -1.195629 0 18
-2.3869691 9.3077755 -0.89690459 0 19
-2.2938473 8.9446564 -0.64555067 0 20
-2.223469 8.6702213 -0.41670072 0 21
-2.1831381 8.5129547 -0.20433491 0 22
-2.1510372 8.3877802 0.00024720631 0 23
-2.1272786 8.2951355 0.19959585 0 24
-2.1164203 8.2527943 0.3971262 0 25
-2.1077256 8.2188911 0.59365779 0 26
-2.1075315 8.2181339 0.79239446 0 27
-2.1160493 8.2513475 0.9960615 0 28
-2.1247323 8.2852068 1.2025348 0 29
-2.1557832 8.4062872 1.4268008 0 30
-2.1963551 8.5644941 1.6658536 0 31
-3.0742338 10.701875 -1.5648081 0 17
-2.9737465 10.352062 -1.2588094 0 18
-2.9139147 10.143779 -0.98511499 0 19
-2.8671517 9.9809904 -0.72598416 0 20
-2.7362623 9.5253439 -0.46138296 0 21
-2.6417191 9.1962252 -0.22246344 0 22
-2.586246 9.0031147 0.00026741892 0 23
-2.5408278 8.8450069 0.21449295 0 24
-2.5160213 8.7586517 0.42476782 0 25
-2.507127 8.7276888 0.63534421 0 26
-2.5059912 8.7237358 0.84773004 0 27
-2.5275116 8.7986517 1.0704447 0 28
-2.5655808 8.9311762 1.3064409 0 29
-2.6298726 9.1549854 1.5660428 0 30
-2.75313 9.5840626 1.8787614 0 31
-3.4186172 10.7306 -1.5827019 0 17
-3.3075943 10.382113 -1.2734818 0 18
-3.2378435 10.163176 -0.99561274 0 19
-3.1848156 9.996727 -0.73347485 0 20
-3.1509488 9.8904238 -0.48324752 0 21
-3.1225219 9.8011951 -0.23916739 0 22
-3.1066236 9.7512932 0.00029216986 0 23
-3.1030509 9.740078 0.23826002 0 24
-3.1043139 9.7440424 0.47668052 0 25
-3.1111772 9.7655859 0.71710372 0 26
-3.1303723 9.8258371 0.9631601 0 27
-3.1605747 9.9206381 1.2174793 0 28
-3.2038462 10.056461 1.4838849 0 29
-3.2676582 10.25676 1.7698237 0 30
-3.36853 10.573383 2.0907872 0 31
-3.7775919 10.778077 -1.6050336 0 17
-3.6399698 10.385419 -1.286171 0 18
-3.5628166 10.165289 -1.0054222 0 19
-3.5081058 10.00919 -0.74147075 0 20
-3.4715164 9.9047947 -0.48861629 0 21
-3.4393482 9.8130131 -0.24176478 0 22
-3.4250355 9.7721767 0.00029561893 0 23
-3.4154541 9.7448397 0.24067508 0 24
-3.4220941 9.7637844 0.48225209 0 25
-3.4340405 9.7978697 0.72641212 0 26
-3.4513741 9.8473253 0.97457421 0 27
-3.4843795 9.9414949 1.2318033 0 28
-3.5384009 10.095627 1.5040283 0 29
-3.6058373 10.288033 1.7923381 0 30
-3.7302506 10.643005 2.1248477 0 31
-4.1427765 10.815536 -1.6276463 0 17
-3.990087 10.416909 -1.3037152 0 18
-3.8956797 10.170441 -1.0165709 0 19
-3.8374329 10.018375 -0.7500006 0 20
-3.798394 9.9164562 -0.49436551 0 21
-3.767858 9.8367367 -0.24491246 0 22
-3.7490833 9.7877216 0.00029922076 0 23
-3.7437687 9.7738466 0.24394456 0 24
-3.7368031 9.755661 0.48694715 0 25
-3.753834 9.8001242 0.7342639 0 26
-3.7761726 9.8584442 0.9859938 0 27
-3.8191175 9.9705591 1.2484709 0 28
-3.8710995 10.106269 1.5215378 0 29
-3.9551156 10.325609 1.8179102 0 30
-4.1055384 10.718317 2.1625161 0 31
-4.3500714 10.449017 -1.322813 0 18
-4.2503295 10.209433 -1.0322354 0 19
-4.1808624 10.04257 -0.760481 0 20
-4.1271224 9.9134855 -0.4999162 0 21
-4.0971208 9.8414202 -0.24785449 0 22
-4.0767612 9.7925158 0.00030281933 0 23
-4.066186 9.7671137 0.24658749 0 24
-4.0711899 9.7791328 0.49374723 0 25
-4.0914598 9.8278217 0.74482983 0 26
-4.1142879 9.8826561 0.99981284 0 27
-4.1571279 9.9855595 1.2647668 0 28
-4.2249331 10.14843 1.5455034 0 29
-4.3177404 10.371356 1.8470196 0 30
-4.5077286 10.827714 2.2097783 0 31
-5.211235 11.570412 -1.1844717 0 19
-4.5475183 10.096773 -0.77414942 0 20
-4.4816341 9.9504919 -0.50805897 0 21
-4.4357791 9.8486805 -0.25113994 0 22
-4.4191232 9.8116999 0.00030720784 0 23
-4.4140606 9.8004589 0.25052437 0 24
-4.4137034 9.7996664 0.50097299 0 25
-4.4318433 9.839942 0.75507665 0 26
-4.4577327 9.8974237 1.0138319 0 27
-4.5126882 10.019441 1.2849324 0 28
-4.9849896 11.068084 1.7066413 0 29
-5.7327542 11.811223 -1.2254612 0 19
-5.3535099 11.029864 -0.8571192 0 20
-5.2320671 10.779655 -0.55783176 0 21
-5.1631699 10.637706 -0.2749252 0 22
-5.1261764 10.561487 0.00033515212 0 23
-5.1139746 10.536348 0.27297476 0 24
-5.1196833 10.54811 0.54652053 0 25
-5.1535792 10.617946 0.82578659 0 26
-5.2129283 10.740223 1.1150283 0 27
-5.3254261 10.972002 1.426105 0 28
-5.5444593 11.423279 1.7852105 0 29
-6.4577184 13.304871 2.7864428 0 31
-5.7756038 11.078706 -0.8734352 0 20
-5.6200862 10.780394 -0.5659833 0 21
-5.5424585 10.631489 -0.27876052 0 22
-5.495172 10.540785 0.00033935983 0 23
-5.4780545 10.50795 0.27619827 0 24
-5.4824677 10.516415 0.55280274 0 25
-5.5334125 10.614137 0.8374958 0 26
-5.5891757 10.721101 1.1292305 0 27
-5.7038045 10.940981 1.4427547 0 28
-5.9406338 11.395265 1.8067318 0 29
-6.4295974 12.33319 2.2867019 0 30
-6.619585 12.697622 2.6979413 0 31
-6.2211814 11.141545 -0.89209777 0 20
-6.0437016 10.823696 -0.57712513 0 21
-5.9427819 10.642958 -0.28341636 0 22
-5.8896513 10.547807 0.00034488557 0 23
-5.872252 10.516646 0.28074086 0 24
-5.8668036 10.506888 0.56092137 0 25
-5.9123764 10.588505 0.84851193 0 26
-5.9793339 10.70842 1.145497 0 27
-6.1230888 10.965871 1.4686041 0 28
-6.3810601 11.427873 1.8401788 0 29
-6.7997799 12.17776 2.2931206 0 30
-7.1112614 12.735595 2.7482402 0 31
-6.6821609 11.199731 -0.91173595 0 20
-6.4848776 10.869072 -0.58922517 0 21
-6.3796868 10.692765 -0.28949898 0 22
-6.3056149 10.568617 0.00035133827 0 23
-6.2945228 10.550025 0.28633621 0 24
-6.2919397 10.545696 0.57239723 0 25
-6.330018 10.609517 0.86439729 0 26
-6.416007 10.753641 1.1695493 0 27
-6.5656228 11.004406 1.4983824 0 28
-6.8612504 11.499897 1.8827083 0 29
-7.3034773 12.241097 2.3435504 0 30
-7.7003608 12.9063 2.8315985 0 31
-7.17451 11.276638 -0.93437338 0 20
-6.9605532 10.940349 -0.60366958 0 21
-6.8303347 10.735676 -0.29584602 0 22
-6.7586575 10.623015 0.00035944665 0 23
-6.730238 10.578347 0.29222673 0 24
-6.7299604 10.57791 0.58438832 0 25
-6.7843804 10.663446 0.88428992 0 26
-6.8884578 10.827031 1.1985377 0 27
-7.0684981 11.110012 1.539749 0 28
-7.4247537 11.669962 1.944634 0 29
-7.9124231 12.436463 2.4234281 0 30
-8.3703823 13.156268 2.9379334 0 31
-7.6931062 11.35862 -0.95906496 0 20
-7.4413891 10.986967 -0.61777115 0 21
-7.3065748 10.787919 -0.30293933 0 22
-7.2293243 10.673862 0.0003680356 0 23
-7.208549 10.643187 0.29960942 0 24
-7.2206955 10.661121 0.60018641 0 25
-7.2833471 10.753624 0.90872735 0 26
-7.4190569 10.953996 1.235653 0 27
-7.6644144 11.316257 1.5981585 0 28
-8.0796938 11.929404 2.0256705 0 29
-8.614749 12.719395 2.5256977 0 30
-9.1426392 13.498809 3.0717533 0 31
-8.2224455 11.420302 -0.98379213 0 20
-7.9424176 11.031366 -0.63282323 0 21
-7.8024631 10.836981 -0.31047711 0 22
-7.735065 10.74337 0.00037793064 0 23
-7.7177138 10.719272 0.30785933 0 24
-7.7503157 10.764552 0.61827624 0 25
-7.8447838 10.895761 0.93937629 0 26
-8.0279274 11.150132 1.2832383 0 27
-8.3500929 11.597594 1.6710454 0 28
-8.8267393 12.259618 2.1238813 0 29
-9.4142838 13.075668 2.6490009 0 30
-9.9657822 13.841654 3.2135284 0 31
-8.7821732 11.487789 -1.0109006 0 20
-8.4542618 11.058854 -0.64805144 0 21
-8.3222446 10.886165 -0.31859758 0 22
-8.2601671 10.804963 0.00038827653 0 23
-8.255168 10.798423 0.31680623 0 24
-8.3360949 10.904283 0.63977897 0 25
-8.4945698 11.11158 0.97859758 0 26
-8.7685928 11.470025 1.3484595 0 27
-9.1716719 11.997285 1.7658328 0 28
-9.6893377 12.674433 2.2429943 0 29
-10.281714 13.449309 2.7833285 0 30
-10.824681 14.159554 3.3580723 0 31
-9.3651276 11.548069 -1.0394276 0 20
-8.9997377 11.097508 -0.66517782 0 21
-8.8590393 10.924015 -0.32701129 0 22
-8.8224764 10.878929 0.00039986824 0 23
-8.8673687 10.934285 0.32812297 0 24
-8.9963789 11.093367 0.66574687 0 25
-9.2472086 11.402664 1.0271823 0 26
-9.6135807 11.854434 1.4255002 0 27
-10.099023 12.45303 1.8747982 0 28
-10.656163 13.140035 2.3785322 0 29
-11.201385 13.812343 2.9237802 0 30
-11.719981 14.45182 3.5057094 0 31
-10.000332 11.632691 -1.0724347 0 20
-9.5491371 11.107847 -0.6819427 0 21
-9.4265509 10.965251 -0.33620545 0 22
-9.4193525 10.956878 0.00041249939 0 23
-9.5265779 11.081605 0.34060785 0 24
-9.7448645 11.335523 0.69677573 0 25
-10.106992 11.756761 1.0847623 0 26
-10.54111 12.26174 1.5102341 0 27
-11.072005 12.879294 1.985991 0 28
-11.604625 13.498853 2.5027366 0 29
-12.123619 14.102563 3.0576034 0 30
-12.631043 14.692815 3.6505985 0 31
-10.15796 11.152243 -0.70227611 0 21
-10.028327 11.00992 -0.34625658 0 22
-10.076128 11.062401 0.00042718259 0 23
-10.273908 11.279539 0.3556076 0 24
-10.58159 11.617338 0.73246312 0 25
-11.005911 12.083193 1.143553 0 26
-11.486279 12.610579 1.5931436 0 27
-12.009902 13.185456 2.0854897 0 28
-12.526947 13.753111 2.6154528 0 29
-13.01893 14.29325 3.1786432 0 30
-13.526287 14.850268 3.7846093 0 31
-10.77747 11.171125 -0.72264445 0 21
-10.676139 11.066093 -0.35751173 0 22
-10.795276 11.189582 0.00044387436 0 23
-11.084419 11.489286 0.37209582 0 24
-11.451586 11.869864 0.76878864 0 25
-11.915876 12.351114 1.2007782 0 26
-12.408926 12.862172 1.6692302 0 27
-12.896546 13.367603 2.1719434 0 28
-13.408757 13.898523 2.7151675 0 29
-13.917409 14.425754 3.2955761 0 30
-14.449183 14.976951 3.9209583 0 31
-11.454598 11.21078 -0.7461673 0 21
-11.380523 11.138281 -0.37024289 0 22
-11.571985 11.325668 0.00046225617 0 23
-11.91836 11.66467 0.38869306 0 24
-12.335814 12.073239 0.80455852 0 25
-12.799583 12.527137 1.2530867 0 26
-13.297965 13.01491 1.7378638 0 27
-13.794664 13.501037 2.2570164 0 28
-14.30531 14.000813 2.814193 0 29
-14.828966 14.513322 3.4113975 0 30
-15.425802 15.097455 4.0667286 0 31
-12.184801 11.259508 -0.7723667 0 21
-12.135448 11.213903 -0.384175 0 22
-12.383236 11.442875 0.00048134642 0 23
-12.773446 11.803452 0.40536582 0 24
-13.210679 12.207483 0.83842403 0 25
-13.693678 12.653805 1.3045303 0 26
-14.198204 13.120017 1.8055632 0 27
-14.706782 13.589975 2.3414776 0 28
-15.231177 14.074548 2.915673 0 29
-15.778296 14.58012 3.5320783 0 30
-16.588789 15.329066 4.2556009 0 31
-13.001905 11.34069 -0.80320036 0 21
-12.956842 11.301385 -0.39974615 0 22
-13.238691 11.547222 0.00050151098 0 23
-13.645457 11.902018 0.4220258 0 24
-14.117484 12.313734 0.87318784 0 25
-14.61152 12.744649 1.356567 0 26
-15.123054 13.190825 1.8742633 0 27
-15.658937 13.65824 2.4296651 0 28
-16.194769 14.12561 3.0212865 0 29
-16.787849 14.642915 3.6624954 0 30
-13.904157 11.442223 -0.83830708 0 21
-13.840532 11.389864 -0.41675368 0 22
-14.160635 11.653288 0.00052355177 0 23
-14.585871 12.003229 0.44027579 0 24
-15.073447 12.404473 0.90992272 0 25
-15.568318 12.811721 1.410682 0 26
-16.103329 13.251999 1.9478177 0 27
-16.637981 13.691983 2.5195694 0 28
-17.208263 14.16129 3.1332552 0 29
-17.885611 14.718701 3.8082664 0 30
-14.896351 11.558267 -0.87776798 0 21
-14.786165 11.472774 -0.43513459 0 22
-15.127025 11.73725 0.00054660277 0 23
-15.581339 12.089758 0.45966199 0 24
-16.079109 12.475985 0.94862664 0 25
-16.586729 12.869854 1.4688909 0 26
-17.114388 13.27927 2.0231841 0 27
-17.688606 13.724814 2.6179461 0 28
-18.294058 14.194591 3.2554433 0 29
-15.992589 11.689598 -0.92221659 0 21
-15.833913 11.573616 -0.45600602 0 22
-16.179718 11.826378 0.00057214161 0 23
-16.640284 12.163024 0.48040649 0 24
-17.149504 12.535232 0.9901458 0 25
-17.663904 12.911227 1.5308399 0 26
-18.228178 13.323675 2.1087813 0 27
-18.800842 13.742258 2.7230692 0 28
-19.478535 14.237609 3.3921158 0 29
-17.20846 11.836189 -0.97234213 0 21
-16.975971 11.676281 -0.47904897 0 22
-17.317356 11.91109 0.00060003583 0 23
-17.785883 12.233348 0.50313729 0 24
-18.302698 12.58882 1.0354418 0 25
-18.834682 12.954725 1.5994267 0 26
-19.403004 13.345624 2.1994812 0 27
-20.025045 13.773473 2.8419595 0 28
-20.879515 14.361187 3.5628519 0 29
-18.522104 11.971868 -1.0267322 0 21
-18.210283 11.77032 -0.50414068 0 22
-18.559088 11.995771 0.00063087302 0 23
-19.036722 12.304494 0.52831507 0 24
-19.53857 12.628866 1.084409 0 25
-20.103775 12.994189 1.6748403 0 26
-20.719431 13.392121 2.304193 0 27
-21.416382 13.8426 2.9818115 0 28
-20.059237 12.164103 -1.0921392 0 21
-19.552778 11.856981 -0.53166765 0 22
-19.908089 12.072445 0.00066467852 0 23
-20.395617 12.368087 0.55594832 0 24
-20.922951 12.687867 1.1405649 0 25
-21.517067 13.048144 1.7606604 0 26
-22.159279 13.437587 2.4204347 0 27
-23.009768 13.953332 3.1466112 0 28
-21.073767 11.966297 -0.5634557 0 22
-21.388432 12.144972 0.00070217735 0 23
-21.898338 12.434512 0.58694112 0 24
-22.463104 12.755202 1.2040726 0 25
-23.078985 13.104918 1.856928 0 26
-23.818775 13.524992 2.5582502 0 27
-22.719957 12.052625 -0.59797609 0 22
-23.043747 12.22439 0.00074469717 0 23
-23.568253 12.502633 0.62182683 0 24
-24.177839 12.82601 1.2757308 0 25
-24.852373 13.183841 1.9683617 0 26
-25.720104 13.644161 2.7192869 0 27
-24.569241 12.143675 -0.63721341 0 22
-24.908649 12.311432 0.00079322001 0 23
-25.469612 12.588696 0.66218799 0 24
-26.109497 12.904967 1.3575536 0 25
-26.84576 13.268876 2.0952201 0 26
-26.639114 12.228785 -0.68151402 0 22
-26.984558 12.387362 0.00084765785 0 23
-27.573826 12.657867 0.70716017 0 24
-28.281208 12.982594 1.4505017 0 25
-29.048693 13.33491 2.2363632 0 26
-28.988047 12.312955 -0.73226565 0 22
-29.315758 12.452154 0.00090928731 0 23
-29.938173 12.716531 0.75812495 0 24
-30.635998 13.012938 1.551483 0 25
-31.725035 12.413745 -0.79207927 0 22
-31.934982 12.495895 0.00097900175 0 23
-32.565506 12.742615 0.81506103 0 24
-33.219975 12.998703 1.6627659 0 25
-35.539761 12.743388 -0.87782937 0 22
-34.854488 12.497672 0.0010570721 0 23
-35.463318 12.715978 0.87809342 0 24
-36.106842 12.946725 1.7879295 0 25
-38.197342 12.471778 0.0011471275 0 23
-38.708736 12.638753 0.94908041 0 24
-42.058109 12.409085 0.0012518623 0 23
-42.388626 12.506603 1.0300816 0 24
-46.646042 12.319765 0.0013773317 0 23
